# .PCD v0.7 - Point Cloud Data file format
VERSION 0.7
FIELDS x y z intensity
SIZE 4 4 4 4
TYPE F F F F
COUNT 1 1 1 1
WIDTH 1407
HEIGHT 1
VIEWPOINT 0 0 0 1 0 0 0
POINTS 1407
DATA ascii
-2.4218962 5.3664002 -1.5412884 29
-3.9803009 8.8194895 1.1315402 10
-2.5281231 5.6017761 -1.4562125 21
-4.9941378 11.065932 1.7062624 11
-2.6017008 5.7648087 -1.344357 27
-4.8547273 10.757029 1.9389616 2
-2.7674479 6.1320686 -1.2675513 13
-4.9818916 11.038798 2.2818146 5
-2.9190035 6.5163603 -1.1731042 25
-3.2637374 7.2859421 -1.1220136 21
-4.9537034 11.058609 -1.4170387 27
-4.9528708 11.05675 -1.1303091 34
-4.5976768 10.263818 -0.78643447 24
-4.918273 10.979514 -0.27931872 18
-3.7986465 8.4800682 0 5
-3.9128757 8.7350731 0.22222017 11
-1.9845045 4.4301925 -1.6402794 21
-2.0613024 4.6016355 -1.5733744 36
-4.8978271 10.93387 0.83777523 10
-2.2022133 4.916204 -1.5446718 24
-4.1680965 9.3048258 0.95121354 15
-2.4203455 5.4031606 -1.5498989 31
-2.5204244 5.6265755 -1.4608237 21
-4.9534969 11.058147 1.7029222 13
-2.5807922 5.7613406 -1.3418622 27
-3.8645735 8.627243 1.5531148 8
-2.7623637 6.1666789 -1.2731059 16
-3.8928597 8.6903896 1.7941239 11
-2.911679 6.5520439 -1.1779678 23
-3.2533667 7.320931 -1.1259104 22
-4.9184523 11.067811 -1.4163417 27
-4.9289408 11.091413 -1.1323528 55
-4.5048189 10.137028 -0.77569199 21
-4.2358809 9.531846 -0.48642418 10
-4.9571314 11.154849 -0.28340384 13
-3.7629118 8.4675417 0 5
-3.8991222 8.7740507 0.22291648 11
-1.9782771 4.4516439 -1.6460415 24
-4.8605938 10.937614 0.55816269 6
-2.0608218 4.6373906 -1.5835023 20
-4.9010162 11.028576 0.84391379 10
-2.1852758 4.9174452 -1.543018 29
-4.1323848 9.2989521 0.94935566 5
-2.4145188 5.4333029 -1.5564834 40
-4.2601848 9.5865364 1.2267838 4
-2.5053005 5.6375852 -1.4617459 23
-3.9056489 8.7887373 1.3516493 7
-2.5628932 5.7671833 -1.3414463 27
-2.7472484 6.1820316 -1.2745872 24
-5.9741874 13.443494 2.7717268 12
-2.9228394 6.6269603 -1.1899647 16
-3.2441006 7.3553562 -1.1298072 24
-4.9147835 11.143299 -1.42424 13
-4.8850927 11.075982 -1.1293802 36
-4.4314079 10.047341 -0.76787925 15
-4.1963487 9.51439 -0.48493353 4
-4.8985295 11.106447 -0.28182548 15
-4.9297118 11.177147 0 10
-5.0526423 11.455867 0.290692 15
-1.9742495 4.4762201 -1.653084 25
-4.8340645 10.960284 0.5586285 19
-2.0763712 4.7077613 -1.605545 20
-4.8935499 11.095157 0.84795964 10
-2.1684327 4.9164925 -1.5408128 31
-2.4079263 5.459497 -1.5620549 44
-4.0257773 9.1276541 1.1666178 11
-2.4934754 5.6534624 -1.4640515 23
-3.8810923 8.7996092 1.3516493 1
-2.5515158 5.7850575 -1.3439413 25
-4.142149 9.3915043 1.6863778 12
-2.7355273 6.2022672 -1.2771792 22
-3.5944939 8.1498041 1.6782186 5
-2.9158187 6.6645331 -1.1951525 21
-3.2278171 7.3776512 -1.1317557 24
-4.853827 11.094136 -1.4161093 16
-4.8282585 11.035697 -1.1238067 10
-4.4095716 10.078726 -0.76927441 15
-4.9160323 11.236317 -0.57195139 17
-4.9304676 11.26931 -0.28558564 9
-3.7108722 8.4817448 0 7
-5.0282435 11.492791 0.29124907 3
-1.970072 4.5028896 -1.6607668 21
-4.8039222 10.980072 0.55890799 16
-2.0769324 4.7471352 -1.6168643 27
-4.0225143 9.1940489 0.7017501 9
-2.1522932 4.919383 -1.5397104 31
-4.098712 9.3682098 0.95400023 10
-2.394042 5.4719357 -1.5635744 25
-4.9023972 11.205151 1.4302797 6
-2.4782486 5.664402 -1.4649737 23
-2.5445321 5.8159027 -1.349347 20
-2.7289279 6.2373662 -1.2827338 17
-3.6979177 8.452136 1.7382079 5
-2.9042716 6.6889415 -1.1980708 18
-3.2379665 7.4574871 -1.1426111 12
-5.0411859 11.610552 -1.4802246 23
-4.6879773 10.797064 -1.0981685 7
-4.3551893 10.030606 -0.76467049 19
-4.9133143 11.316047 -0.28642121 31
-3.7437279 8.6223259 0 5
-1.9703193 4.5379195 -1.6716509 22
-4.7748346 10.997108 0.55909437 10
-2.0743139 4.7774334 -1.6252047 18
-3.7123599 8.5500813 0.65180451 8
-2.143142 4.9359541 -1.543018 33
-4.0765018 9.388751 0.95492917 7
-2.3833764 5.4892473 -1.5666134 25
-4.8354878 11.136802 1.4198263 4
-2.4717228 5.6927214 -1.4705071 21
-2.5321779 5.8319578 -1.3514261 20
-3.564512 8.2095671 1.4704332 14
-2.7349832 6.2990465 -1.2938429 19
-3.817548 8.7923441 1.8059736 5
-2.9043131 6.7469759 -1.2068253 12
-3.2497618 7.5494843 -1.1551368 21
-4.8240414 11.206675 -1.4267952 24
-4.306303 10.003922 -0.76160115 21
-4.826365 11.212072 -0.56924951 32
-4.8556066 11.280003 -0.28512141 20
-3.7790942 8.77917 0 7
-3.956742 9.1918612 0.23234007 27
-1.9583017 4.5493078 -1.6735716 22
-4.7829199 11.111146 0.56412536 6
-2.0728836 4.8154917 -1.6359282 22
-4.8056417 11.163931 0.84991288 15
-2.1367474 4.9638529 -1.5496333 27
-4.7823749 11.109879 1.1284513 4
-2.3875406 5.5464678 -1.5807955 34
-2.4661391 5.7290592 -1.477885 21
-2.5107508 5.832696 -1.3497628 22
-3.5433869 8.2316008 1.4723787 8
-2.7291696 6.3401022 -1.3005084 33
-4.8747382 11.324448 2.3229184 6
-2.9083533 6.8053708 -1.215904 20
-3.2486634 7.6016755 -1.1618172 19
-4.7470636 11.107841 -1.4126248 11
-4.7845721 11.195609 -1.1358827 18
-4.2824473 10.020667 -0.76201975 15
-4.7506709 11.116282 -0.56375265 45
-4.8559136 11.362544 -0.28688544 20
-4.8339128 11.311064 0.28558564 11
-1.9389375 4.5369964 -1.6671692 24
-2.0647697 4.8314362 -1.6395026 27
-3.7602739 8.7988129 0.66910404 4
-2.1343203 4.9941802 -1.5573511 24
-2.3760517 5.5598168 -1.5828216 38
-3.9047546 9.1368895 1.1619717 1
-2.4587781 5.7533917 -1.4824963 25
-3.9063346 9.1405869 1.3970196 22
-2.517765 5.891418 -1.3618217 37
-3.7327745 8.7344666 1.5605721 6
-2.7032917 6.3255386 -1.2960647 27
-4.7392564 11.089573 2.2721865 6
-2.9031274 6.852634 -1.222713 26
-3.2417641 7.6519632 -1.1679407 28
-3.4839349 8.2235909 -1.0444272 10
-4.6631532 11.007055 -1.1152607 10
-4.2836347 10.111228 -0.76787925 21
-4.7578106 11.230488 -0.5687837 62
-4.8389149 11.421928 -0.28799957 22
-4.7372355 11.181921 0 28
-4.7312794 11.167863 0.28159338 14
-1.9239362 4.5413203 -1.6665291 22
-4.9409528 11.662783 0.59067792 16
-2.052561 4.8449306 -1.6418856 27
-3.6291039 8.5662527 0.65054888 6
-2.1508691 5.0769796 -1.5810559 15
-4.8892026 11.540629 1.1693238 6
-2.3381958 5.5191517 -1.5691459 31
-3.8744824 9.1454515 1.161507 9
-2.4543569 5.7933421 -1.4907963 20
-4.7089024 11.115043 1.6965202 4
-2.5839527 6.0992441 -1.4079781 15
-4.0301967 9.5130043 1.6974019 12
-2.6803403 6.3267603 -1.2945834 27
-2.8801541 6.8516188 -1.2210919 31
-3.2249861 7.6719422 -1.1696109 33
-3.40399 8.0977755 -1.0272369 10
-4.6447406 11.049407 -1.1182332 10
-4.3164573 10.268451 -0.7789008 15
-4.6087499 10.963788 -0.55462229 7
-4.8209429 11.468575 -0.28883514 23
-4.6935868 11.165607 0 15
-4.7419109 11.280566 0.28410015 26
-1.8789387 4.4698205 -1.6383586 21
-4.8789425 11.606551 0.58713758 13
-2.0405016 4.8541641 -1.6430771 22
-2.1530716 5.1219573 -1.593184 15
-3.9687493 9.4412851 0.95548654 5
-2.3152752 5.5078244 -1.5640808 25
-2.4524965 5.8342614 -1.4995576 20
-2.5979903 6.1803775 -1.4250268 11
-3.8575401 9.1767292 1.6354718 14
-2.6580906 6.3233504 -1.2923617 30
-4.7045918 11.191787 2.2873693 5
-2.859375 6.8624544 -1.2214161 28
-3.2046783 7.6911769 -1.1710026 30
-3.3357491 8.0057449 -1.014228 17
-4.588562 11.012475 -1.1130313 10
-4.2872481 10.289328 -0.77945888 8
-6.568284 15.763778 -0.79639035 4
-4.7595139 11.422757 -0.28730324 22
-4.6231031 11.095374 0 10
-4.6480045 11.155137 0.28057212 10
-1.8546853 4.4512153 -1.6293954 24
-5.0022845 12.005404 0.60651624 8
-2.0274458 4.8658376 -1.6448644 20
-2.1569357 5.1766109 -1.6080683 18
-6.4887824 15.572975 1.573961 14
-2.2845666 5.4829235 -1.5549639 19
-2.4468813 5.8724761 -1.5073966 23
-4.6497159 11.159244 1.6990253 6
-2.5898488 6.2155957 -1.4312642 20
-2.6336775 6.3207841 -1.2901399 35
-4.6346378 11.123056 2.2703352 5
-2.8451719 6.8790345 -1.2230372 25
-3.1905885 7.71418 -1.1732293 30
-3.3162985 8.0181208 -1.0146925 40
-5.1016169 12.33465 -1.2453095 11
-4.5172725 10.921827 -0.82647473 5
-4.5531664 11.008611 -0.55555397 2
-4.7441139 11.470283 -0.28818524 20
-3.9045534 9.4403992 0 4
-4.7815599 11.560819 0.29045993 19
-1.8372331 4.4420476 -1.6242737 27
-4.9112811 11.874457 0.59924924 24
-2.0227275 4.8905349 -1.6514176 21
-4.6918936 11.344025 0.85842317 7
-2.1521943 5.2035584 -1.6146837 14
-5.7896461 13.998162 1.4132581 9
-2.2739027 5.4978242 -1.5574963 23
-2.438194 5.8950467 -1.5115466 28
-3.9013746 9.4327135 1.4345964 7
-2.57955 6.2368164 -1.4345907 28
-2.6163707 6.325841 -1.2897696 35
-3.6695292 8.87216 1.8089361 8
-2.8344822 6.9111843 -1.2272524 22
-3.2180359 7.8463855 -1.1918784 22
-3.2894764 8.0205755 -1.0137634 45
-5.2342544 12.762436 -1.2869251 24
-4.4803014 10.924108 -0.82563764 5
-4.5151734 11.009134 -0.55490184 4
-4.7055049 11.47321 -0.28790671 20
-4.0006657 9.7546339 0.24478106 3
-1.8247628 4.4492331 -1.6249138 25
-4.8911853 11.925946 0.6011126 22
-2.0190737 4.9230123 -1.6603539 27
-3.7633626 9.1760292 0.69351888 12
-2.1513343 5.2454967 -1.6257092 14
-3.8937654 9.4939852 0.95734441 3
-2.2707939 5.5367694 -1.5666134 25
-2.4288139 5.9220619 -1.5166191 23
-3.8831372 9.46807 1.4382149 7
-2.5610318 6.2444434 -1.4345907 27
-3.8656795 9.4255037 1.6737323 19
-2.6497934 6.460866 -1.3156909 12
-3.755055 9.1557732 1.8644818 12
-2.8243737 6.945158 -1.2317919 21
-3.2342851 7.9531341 -1.2066308 30
-3.2626727 8.0229387 -1.0128341 37
-5.1070976 12.558395 -1.2648166 12
-4.4471202 10.935505 -0.8254981 3
-4.9679189 12.216153 -0.61499447 11
-4.6812367 11.511199 -0.2885102 22
-4.512979 11.097452 0 13
-1.8115546 4.4546275 -1.6249138 28
-3.6659193 9.0145264 0.45381579 20
-2.011651 4.9466667 -1.6663115 31
-3.7939937 9.3294621 0.70426136 9
-2.1502466 5.2874746 -1.6367347 24
-2.2638323 5.566782 -1.573198 29
-3.8149321 9.380949 1.1842725 4
-2.4156318 5.9400582 -1.5193857 28
-3.8527911 9.4740448 1.4373798 7
-2.5402834 6.2465777 -1.4333434 23
-2.677258 6.5833998 -1.33902 12
-5.0613208 12.445829 2.5313997 2
-2.8103976 6.9699793 -1.2347099 28
-3.2158594 7.9755521 -1.2085793 27
-3.2514837 8.0639029 -1.0167834 27
-4.0220437 9.9749451 -1.0034187 2
-4.4124179 10.943099 -0.82507962 3
-5.9126048 14.663666 -0.73732257 10
-4.6328568 11.489802 -0.28762817 20
-4.5555739 11.298136 0 15
-4.5169606 11.202374 0.28043285 14
-1.7962044 4.4547105 -1.6229931 27
-3.55847 8.8252506 0.44375375 5
-1.9976798 4.9543834 -1.6669072 31
-4.5549226 11.296521 0.85172659 10
-2.1403015 5.308095 -1.641145 24
-3.858958 9.5704813 0.96273208 6
-2.2559886 5.5950065 -1.579276 23
-4.0426259 10.02599 1.2641844 5
-2.4052753 5.9652481 -1.5239968 23
-3.8180001 9.4689026 1.4348748 7
-2.5275919 6.2686014 -1.4366699 22
-3.6864331 9.1426077 1.6195841 8
-2.6797636 6.6459975 -1.3501291 14
-4.9935036 12.384232 2.5158467 5
-2.7867727 6.9709582 -1.233413 25
-3.2090886 8.0273581 -1.2149813 25
-3.237864 8.0993385 -1.0200355 32
-5.8544755 14.644648 -1.4714084 7
-5.8611321 14.6613 -1.1041055 8
-5.78304 14.465956 -0.72651517 14
-4.6106176 11.533206 -0.28837094 20
-4.4938169 11.241035 0 10
-4.5126457 11.288135 0.28224328 14
-1.7935281 4.4864116 -1.6325966 21
-1.9879307 4.9726992 -1.6710774 25
-3.7259736 9.3203182 0.70188963 9
-2.1323912 5.3340592 -1.6472089 16
-3.83202 9.5855865 0.96310365 3
-2.245122 5.6160493 -1.583328 19
-2.407069 6.0211506 -1.5364472 22
-3.7920914 9.4857073 1.4357098 9
-2.5300391 6.3287535 -1.4487288 17
-4.2819891 10.711161 1.8951889 8
-2.6717041 6.6831207 -1.3560541 19
-4.9384937 12.353371 2.5065894 1
-2.7549295 6.947525 -1.2279009 28
-3.2092922 8.0933609 -1.22361 28
-3.2188969 8.1175823 -1.0211971 20
-3.9461737 9.9516668 -0.99877423 5
-5.6321597 14.203474 -0.71254015 6
-4.5872388 11.568339 -0.288928 21
-4.7373943 11.947008 0 11
-4.4700518 11.27281 0.28154695 18
-1.7768028 4.480834 -1.6287552 21
-4.6586089 11.748323 0.58937359 6
-1.9662961 4.9587083 -1.6645242 22
-3.6690459 9.2527914 0.69603008 19
-2.1281185 5.3668003 -1.6554781 22
-2.2444084 5.6600661 -1.5939646 19
-3.8808353 9.7868929 1.2311975 8
-2.4117672 6.0821204 -1.5502807 24
-2.5469704 6.4230833 -1.4686882 12
-4.2251463 10.655195 1.8831919 17
-2.6921537 6.7892137 -1.3760505 15
-5.391552 13.596698 2.7558041 6
-2.728292 6.9368258 -1.2246585 26
-3.1859515 8.1004486 -1.2233316 27
-3.4594135 8.7957411 -1.1052902 12
-4.9723005 12.642336 -1.2674177 9
-6.2654986 15.93036 -1.1970211 16
-5.5888138 14.209853 -0.71207428 3
-4.5673537 11.612738 -0.28971717 16
-3.7750666 9.5983057 0 2
-4.4480653 11.309441 0.28215045 14
-1.7566532 4.466383 -1.6217127 21
-4.6425986 11.804051 0.59151644 9
-1.9454516 4.946413 -1.6585667 33
-4.4654455 11.35363 0.8531217 5
-2.122973 5.3977704 -1.663196 22
-3.7857122 9.6253729 0.96496153 3
-2.2427552 5.702323 -1.6040946 24
-3.8702097 9.8402119 1.2365404 6
-2.3969083 6.0942659 -1.551664 27
-3.6230683 9.2118416 1.3911744 7
-2.5540831 6.4938908 -1.4832422 12
-3.5329831 8.9827957 1.585863 8
-2.6803756 6.8149958 -1.3797535 21
-5.7031722 14.500615 2.9357719 6
-2.7112837 6.9540834 -1.2262796 28
-3.1655016 8.119092 -1.2247233 15
-3.4607224 8.8762951 -1.1141175 10
-4.8797946 12.516027 -1.253298 3
-6.1957407 15.891254 -1.1926962 16
-4.5001512 11.542292 -0.57772774 7
-4.5706482 11.723106 -0.2921311 35
-4.631453 11.879064 0 11
-4.3454933 11.145615 0.27774039 14
-1.7454588 4.476871 -1.6236333 21
-4.6061053 11.81405 0.59133005 11
-1.8988656 4.8703384 -1.6311622 33
-3.6671479 9.4057484 0.70593554 4
-2.1097424 5.4112101 -1.665401 27
-3.7694356 9.6681032 0.96811986 5
-2.2286386 5.7161627 -1.6061207 27
-6.0678101 15.563128 1.9534225 8
-2.3873 6.1231079 -1.5571973 23
-3.5906861 9.2096338 1.389226 3
-2.5454648 6.52878 -1.4894795 20
-4.2117376 10.802549 1.9049163 8
-2.6608586 6.8247499 -1.3801239 22
-3.6917899 9.4689522 1.9148432 6
-3.1556747 8.16115 -1.2297336 16
-3.4817736 9.0045013 -1.1289848 17
-5.9975019 15.510633 -1.5514814 11
-5.8656855 15.169731 -1.1373096 9
-4.5082521 11.659163 -0.58294505 10
-4.555923 11.782447 -0.29329163 21
-3.7319877 9.6515999 0 6
-1.7432013 4.5082359 -1.6332369 22
-4.5572472 11.785872 0.58928043 22
-1.8356826 4.7474098 -1.5882683 22
-5.8333058 15.085993 1.1310315 12
-2.0987844 5.4278388 -1.6687087 25
-6.0168929 15.560781 1.5564973 11
-2.2294149 5.7656736 -1.6182767 29
-3.9474432 10.208808 1.2799808 6
-2.3708947 6.131566 -1.5576586 23
-2.5342793 6.5541086 -1.4936378 17
-3.5075257 9.0711002 1.59786 4
-2.6417911 6.8321538 -1.3801239 19
-5.6124768 14.514889 2.9320688 6
-2.8161077 7.3515406 -1.2933975 17
-3.1328559 8.178422 -1.230847 22
-3.471945 9.0636253 -1.1350247 15
-7.1191206 18.584694 -1.8567241 16
-4.4959021 11.736698 -0.58611274 10
-4.5389137 11.848981 -0.29459143 23
-4.5387063 11.848439 0 8
-3.8701644 10.103189 0.25118724 9
-1.7303861 4.5172291 -1.6345173 24
-4.5509305 11.880352 0.59328657 16
-1.8159794 4.7406731 -1.584098 22
-3.5848656 9.358407 0.70077354 6
-2.0844738 5.441586 -1.6709137 27
-2.2265182 5.812398 -1.6294198 27
-6.886332 17.976994 2.2512329 14
-2.3467481 6.1262617 -1.5544306 23
-2.5220754 6.5839596 -1.4986275 16
-3.4585392 9.0286283 1.5884569 6
-2.6385951 6.8881383 -1.3897518 16
-2.8032742 7.3796706 -1.2969642 27
-3.1289918 8.2371283 -1.2383624 18
-3.4670756 9.12714 -1.1417614 17
-5.5906739 14.717551 -1.4688073 10
-5.8039007 15.278876 -1.1428901 12
-5.8699317 15.452703 -0.77086258 11
-4.5207143 11.900864 -0.29556629 9
-3.6952434 9.7277956 0 6
-3.8611033 10.164426 0.25244063 3
-1.7251647 4.5415277 -1.6415598 24
-4.4772949 11.786561 0.5879761 19
-1.7979866 4.733233 -1.5799278 28
-3.5544641 9.357192 0.69993645 6
-2.0685856 5.4455895 -1.6703625 25
-5.8869672 15.49755 1.5466509 14
-2.2240179 5.8547678 -1.6395499 20
-3.627908 9.5505342 1.1947261 9
-2.33654 6.1509848 -1.5590419 25
-3.6557651 9.6238689 1.4468437 1
-2.5182662 6.6293826 -1.50736 20
-3.4669492 9.1268072 1.6040205 4
-2.6367958 6.9414134 -1.3990093 16
-6.3163052 16.627789 3.351253 4
-2.7827582 7.3916497 -1.2976128 26
-3.1094241 8.2593508 -1.2403108 19
-3.4238834 9.0946264 -1.1364185 25
-5.7241006 15.204536 -1.1360539 12
-4.4162612 11.730613 -0.58452886 10
-6.0176172 15.984184 -0.39653328 15
-5.5393624 14.71383 0 15
-3.3307531 8.8472519 0.21948129 2
-1.7216967 4.573225 -1.6511635 30
-4.4176693 11.734353 0.58471525 49
-1.7906625 4.7564144 -1.5858853 24
-4.7919917 12.72864 0.95105976 12
-2.0497108 5.4445062 -1.6681575 20
-3.4673915 9.2101946 0.91814399 5
-2.2148178 5.8830686 -1.6456279 27
-3.6387508 9.6653652 1.2077351 5
-2.3374796 6.2088871 -1.5719532 20
-5.913208 15.70685 2.3587058 7
-2.5144398 6.6789341 -1.5169239 20
-4.0760942 10.827049 1.9007012 8
-2.6272695 6.9786363 -1.4049342 24
-3.4284692 9.1068077 1.8333762 5
-2.7716846 7.4210949 -1.3015037 24
-3.1051159 8.3138456 -1.2472695 15
-3.4000635 9.1035585 -1.1364185 25
-6.9722366 18.667934 -1.8591394 16
-5.6849756 15.221335 -1.1361934 24
-4.3981199 11.775821 -0.5862059 7
-4.4478855 11.909067 -0.29514849 7
-5.5798988 14.939995 0 11
-4.2820864 11.465146 0.28414658 15
-1.7097189 4.5777164 -1.6511635 28
-4.2163792 11.289217 0.56198251 6
-1.783549 4.7753935 -1.5906512 36
-4.7551641 12.731795 0.95036221 9
-2.0260336 5.4246383 -1.6604395 16
-5.7822118 15.481682 1.5418205 11
-2.2061789 5.9069715 -1.6506928 33
-6.0960674 16.32202 2.0375159 9
-2.3341553 6.2496243 -1.5807145 24
-5.8907809 15.772372 2.3662212 15
-2.5092673 6.7184806 -1.5244086 24
-4.9191532 13.170872 2.3098934 6
-2.6179314 7.0094252 -1.4097482 22
-4.8088245 12.87547 2.5895374 4
-2.7531476 7.4427238 -1.3037734 28
-3.1092124 8.4052916 -1.2595166 19
-3.3941872 9.1756783 -1.1440845 17
-6.8741703 18.583292 -1.8485497 21
-5.6648111 15.313972 -1.1417739 31
-5.7584262 15.567046 -0.77403033 19
-5.3594069 14.488356 -0.35865322 9
-5.5051765 14.882422 0 3
-4.2287011 11.431662 0.28298602 14
-1.7058455 4.6114984 -1.6614071 25
-4.2044554 11.366117 0.5651502 22
-1.7711858 4.7881365 -1.5930341 31
-4.7220607 12.765387 0.95175737 9
-1.9996421 5.4057341 -1.6527216 16
-2.1835816 5.9029865 -1.6476539 29
-3.510658 9.4905396 1.1833434 4
-2.3253109 6.2861309 -1.5880924 27
-5.8638711 15.8521 2.3754067 3
-2.4956121 6.7465148 -1.5289828 31
-4.9366312 13.345445 2.3377781 9
-2.6456723 7.1521802 -1.4367803 16
-5.772748 15.605762 3.1349955 3
-2.7343888 7.4559412 -1.304746 30
-3.1259592 8.5236483 -1.2759391 16
-3.3726518 9.196312 -1.1454782 22
-6.9216619 18.873507 -1.8754883 5
-5.6343851 15.363449 -1.1442852 12
-5.4046926 14.73714 -0.73201203 10
-5.3340678 14.544564 -0.35967448 18
-5.4573927 14.880838 0 11
-4.3144817 11.764428 0.29092413 27
-1.6975266 4.6286974 -1.6658889 29
-4.211904 11.484727 0.57046068 10
-1.7709539 4.8289137 -1.6049492 21
-5.626142 15.340972 1.142611 17
-1.9249612 5.2488503 -1.603107 29
-5.7025719 15.549376 1.5451646 14
-2.1697516 5.9163275 -1.6496799 31
-5.7343969 15.636154 1.9476151 11
-2.3191371 6.3236613 -1.5959314 27
-5.8127565 15.84982 2.3726232 11
-2.4875376 6.7828441 -1.5356358 24
-3.4159479 9.3143692 1.6299598 14
-2.6297476 7.1706128 -1.4390022 20
-3.3687298 9.1856174 1.8433744 6
-2.7089326 7.45893 -1.3037734 27
-3.1498744 8.6730442 -1.2968152 13
-3.3742607 9.2908831 -1.1559318 15
-5.2499108 14.455404 -1.434809 10
-5.601078 15.422329 -1.1473545 12
-5.3699646 14.785968 -0.73359591 10
-5.2139544 14.3564 -0.35461456 12
-5.9608979 16.413078 0 20
-4.2604399 11.730939 0.28976357 15
-1.6868584 4.6446924 -1.6697301 24
-4.2358208 11.663151 0.57865942 6
-1.7629448 4.8541932 -1.6115025 27
-4.6530356 12.811934 0.95315248 6
-1.8631799 5.1301861 -1.5650691 12
-5.6659336 15.600905 1.5485086 14
-2.1637044 5.9576678 -1.6593035 33
-5.7184768 15.745581 1.9589978 8
-2.3238409 6.3985963 -1.6129928 25
-3.5399745 9.7471685 1.4574208 3
-2.4875877 6.8494663 -1.5489422 18
-5.8928208 16.22563 2.8361366 8
-2.6306913 7.2434959 -1.4519628 11
-6.0517306 16.663181 3.3401439 4
-2.6927736 7.4794631 -1.306043 24
-3.1437578 8.7321196 -1.3043305 18
-3.3604162 9.3339109 -1.1601133 21
-5.3525295 14.867216 -1.4741951 7
-5.3991728 14.996773 -1.1145689 15
-5.3137679 14.759551 -0.73154616 10
-5.8748455 16.318003 -0.40266091 16
-5.9170766 16.435305 0 15
-4.1897383 11.637441 0.28716397 15
-1.6745241 4.6511674 -1.6703705 24
-4.2160945 11.710649 0.58042955 21
-1.7577907 4.8824492 -1.6192472 25
-3.6454046 10.125496 0.75253284 6
-1.8416836 5.1154709 -1.5590049 20
-4.2206402 11.723273 1.1624498 7
-2.1634448 6.0091968 -1.6719661 18
-5.6691041 15.746535 1.9571394 8
-2.3151939 6.4306955 -1.6194484 25
-4.7773576 13.269615 1.9821035 11
-2.4876695 6.9097648 -1.5610011 16
-5.927043 16.462988 2.8747211 2
-2.6650472 7.4024501 -1.4823278 24
-4.541832 12.615417 2.5262153 8
-2.6738858 7.4967132 -1.3076642 28
-3.1271515 8.7675238 -1.3082273 16
-3.3433862 9.3737764 -1.16383 23
-5.455193 15.294601 -1.1354958 39
-5.264585 14.760199 -0.73080087 10
-5.8579755 16.423874 -0.40484273 48
-4.955862 13.894638 0 3
-1.6619903 4.6596847 -1.6716509 22
-4.198782 11.77203 0.58285189 6
-1.7452214 4.8930378 -1.6210345 27
-4.1991382 11.773028 0.87404865 7
-1.82004 5.1028047 -1.5534922 27
-5.5793352 15.642656 1.5494375 20
-2.1462567 6.0174112 -1.6724725 18
-5.3814502 15.08785 1.8732785 7
-2.3163719 6.49436 -1.6337432 16
-5.751297 16.124783 2.4060247 11
-2.4816167 6.9576526 -1.5701493 24
-3.5967844 10.084223 1.7590077 8
-2.7018375 7.5750804 -1.5152848 26
-4.5360765 12.717695 2.5439899 6
-2.6634622 7.5297375 -1.3122036 24
-3.108808 8.7887516 -1.3101757 16
-3.3281054 9.4087162 -1.1670823 28
-5.3796468 15.208523 -1.5050354 50
-5.4224477 15.329523 -1.1370306 12
-5.229918 14.785233 -0.7313599 10
-5.02349 14.201651 -0.3497403 9
-5.2015867 14.705139 0 11
-4.1753507 11.80392 0.290692 11
-1.6523116 4.671165 -1.6742117 22
-4.1499562 11.732129 0.58033639 7
-1.7451376 4.933589 -1.6329495 22
-5.162303 14.594082 1.0824809 12
-1.8085964 5.1129899 -1.555146 15
-5.513124 15.585871 1.5423777 11
-2.1221063 5.9992981 -1.6658881 15
-5.3631258 15.161818 1.8807123 5
-2.3155844 6.5462699 -1.6452711 22
-5.7176442 16.164059 2.4096434 15
-2.4660003 6.9715033 -1.5718125 25
-3.5460176 10.024765 1.7470109 6
-2.6937921 7.6154809 -1.5219502 24
-5.6340241 15.927661 3.183135 5
-2.6528573 7.5711312 -1.3180399 20
-3.0800993 8.7904596 -1.3090622 15
-3.3218534 9.4804144 -1.1747482 31
-5.3759861 15.342813 -1.5167397 63
-4.8060927 13.716364 0 3
-5.3225021 15.190172 0.37369382 18
-1.6422049 4.6867757 -1.6780531 29
-4.0728498 11.623722 0.57437372 10
-1.7380683 4.9603658 -1.6400983 16
-4.2065506 12.005298 0.88953459 5
-1.8054978 5.1528063 -1.5656203 13
-4.0168438 11.463884 1.1332817 4
-2.1068568 6.0128713 -1.667914 18
-5.3227167 15.190784 1.8823384 10
-2.3115973 6.5971909 -1.656338 23
-5.300941 15.128637 2.2529345 3
-2.4640663 7.0323296 -1.5838715 22
-5.3931642 15.391839 2.679528 10
-2.6880841 7.6716661 -1.5315782 26
-3.2470183 9.2668381 1.8500398 2
-2.641345 7.6148558 -1.3242005 20
-3.0498693 8.7926092 -1.3079489 18
-3.2959566 9.5020657 -1.176142 28
-5.2938194 15.261796 -1.5070789 61
-5.297318 15.271882 -1.1303339 36
-4.9949589 14.400197 -0.35387179 12
-4.7649403 13.737065 0 3
-5.3278255 15.359834 0.37745398 18
-1.6268505 4.6901221 -1.677413 32
-1.7374913 5.0090938 -1.6543964 25
-5.0593247 14.58576 1.0795512 12
-1.8082005 5.2129445 -1.5821584 15
-5.3499417 15.423594 1.5230563 19
-2.0765417 5.9865575 -1.6587969 18
-2.2985115 6.6264844 -1.6618713 23
-5.2988157 15.276199 2.2724185 16
-2.4496524 7.0622158 -1.5888612 22
-5.3661208 15.470238 2.690228 5
-2.6562381 7.6577916 -1.5271345 24
-5.469635 15.768663 3.1446235 5
-2.6290531 7.6483297 -1.3287398 20
-3.0414011 8.8479156 -1.3149077 18
-3.3359227 9.7047253 -1.2000691 23
-5.2019849 15.133394 -1.4929593 61
-5.2585449 15.297936 -1.131171 27
-5.1059008 14.85387 -0.7324779 10
-5.3681111 15.616683 -0.38339597 14
-4.8871489 14.217487 0 14
-5.4064593 15.728243 0.38613483 25
-1.6118999 4.689271 -1.6754923 29
-4.0667958 11.830951 0.58341086 6
-1.7241179 5.0157309 -1.6549922 31
-4.110589 11.958352 0.88423306 11
-1.8030114 5.245245 -1.5904276 29
-5.2608929 15.304768 1.5098658 11
-2.006356 5.8368063 -1.6157442 22
-5.2279577 15.208954 1.8807123 7
-2.2926517 6.6696854 -1.6710937 27
-5.2374678 15.23662 2.2643466 13
-2.429287 7.0671787 -1.5884454 22
-5.3184114 15.472097 2.6879582 7
-2.6501787 7.7097874 -1.5360219 22
-5.568058 16.198359 3.2272012 6
-2.618434 7.6915932 -1.3349004 20
-3.0406675 8.9318953 -1.3260415 16
-3.3852158 9.9439983 -1.2284098 15
-5.0781288 14.916894 -1.4701079 14
-5.2343526 15.375798 -1.135775 63
-4.9954939 14.674156 -0.72288167 10
-4.7978954 14.093714 0 14
-5.3140225 15.609826 0.3828389 31
-1.5998122 4.6994138 -1.677413 21
-4.0458417 11.884572 0.58546054 7
-1.7190738 5.0497417 -1.6645242 22
-4.0525885 11.904391 0.87935013 11
-1.7942567 5.2705903 -1.5964917 16
-3.8844831 11.410585 1.1245499 5
-1.9678305 5.7804599 -1.5985231 17
-5.1533637 15.137895 1.8700264 10
-2.2778709 6.6911964 -1.6747826 31
-5.3671227 15.765807 2.3406134 14
-2.4051566 7.0650954 -1.5863664 30
-5.2998328 15.568144 2.7019007 10
-2.6374269 7.7473841 -1.5419466 28
-4.4071126 12.945798 2.5765767 5
-2.6378393 7.8246279 -1.3566245 27
-2.9983325 8.89396 -1.3190827 22
-3.3645775 9.9803524 -1.231662 18
-5.0828257 15.077196 -1.4844133 21
-5.1052103 15.143595 -1.1174986 24
-5.2101927 15.455005 -0.37866095 45
-4.8340001 14.339104 0 14
-5.226161 15.502372 0.37982148 24
-1.5894921 4.7149134 -1.6812544 19
-3.2561848 9.6588278 0.47533733 5
-1.7114006 5.0765309 -1.6716732 33
-4.0070481 11.886115 0.87711787 8
-1.7958056 5.3269014 -1.6119273 15
-4.9078846 14.558269 1.4333227 10
-1.9475788 5.7771068 -1.5959907 19
-5.2150316 15.469359 1.909053 49
-2.2586272 6.6997705 -1.6752437 38
-5.4329357 16.115726 2.3901591 18
-2.387306 7.0814705 -1.5884454 25
-4.5689344 13.55284 2.3497748 13
-2.6194489 7.7700768 -1.5449092 26
-5.5270877 16.395012 3.259788 8
-2.7261944 8.157196 -1.4130425 28
-2.970645 8.8886299 -1.3171344 25
-3.3478844 10.017388 -1.2351466 13
-5.0704803 15.171662 -1.4924018 43
-5.0547986 15.12474 -1.115127 21
-4.8672304 14.563507 -0.71608049 23
-5.1976018 15.55203 -0.38070348 14
-4.7685523 14.268247 0 14
-4.9865546 14.920544 0.3652451 23
-1.5837501 4.7388258 -1.6882969 22
-4.0072641 11.990355 0.58955991 6
-1.700526 5.0882368 -1.6740562 17
-3.9626381 11.856827 0.87418813 10
-1.7909954 5.3589354 -1.6201965 15
-5.093204 15.239655 1.4990902 11
-1.9355149 5.7913604 -1.5985231 21
-5.2406316 15.68078 1.9334445 22
-2.244782 6.7167349 -1.6780105 28
-5.1308284 15.352233 2.2749236 10
-2.3830218 7.1303701 -1.5980093 22
-5.4417543 16.282572 2.8205729 25
-2.6028371 7.7880917 -1.5471309 26
-5.4287033 16.243521 3.226831 8
-2.7307007 8.2472115 -1.4273092 27
-2.9812973 9.0040579 -1.3330001 19
-3.3211477 10.030468 -1.2356112 26
-5.060019 15.282175 -1.501877 21
-5.0125451 15.138796 -1.115127 21
-5.0827546 15.350841 -0.75409263 36
-4.7601242 14.376438 0 14
-5.0988483 15.399446 0.37661836 24
-1.5681292 4.7360344 -1.6857361 22
-4.0057931 12.098222 0.59431142 6
-1.6917121 5.1092772 -1.679418 17
-5.0652227 15.297892 1.1268461 12
-1.7869017 5.3967671 -1.6301194 14
-5.0099444 15.13094 1.4870143 11
-1.9205523 5.800416 -1.5995362 21
-5.0594583 15.280481 1.8823384 31
-2.2455924 6.7820964 -1.6927663 28
-5.0779791 15.336417 2.2704701 10
-2.364332 7.1407113 -1.5988411 24
-4.3727188 13.206404 2.2855752 9
-2.5854044 7.8083901 -1.5497233 26
-5.3864141 16.267946 3.2286825 12
-2.7299678 8.3326435 -1.440603 17
-2.9967728 9.1470089 -1.3527626 13
-3.3279617 10.157892 -1.2500138 21
-5.044838 15.398291 -1.5117234 11
-4.9804854 15.201869 -1.1186148 21
-5.0344996 15.366735 -0.75409263 39
-4.6358476 14.149935 -0.34570161 3
-4.7180452 14.400826 0 14
-4.9421234 15.084777 0.36854103 11
-1.542623 4.7085276 -1.6742117 19
-4.9324908 15.055374 0.73881322 6
-1.6804065 5.1290817 -1.684184 22
-5.0196185 15.321314 1.1274041 12
-1.781908 5.4388938 -1.641145 22
-5.0256186 15.339628 1.5059642 11
-1.8914757 5.7733259 -1.5904191 12
-5.0460587 15.402016 1.8953472 13
-2.2285142 6.8020639 -1.6959941 28
-2.3510211 7.1759901 -1.6050783 19
-5.4212255 16.547132 2.8607788 11
-2.5939021 7.9173322 -1.5697196 20
-4.4333143 13.531745 2.6828539 4
-2.7165573 8.3806028 -1.4474121 24
-2.9686344 9.1582623 -1.3530409 30
-3.3131864 10.221209 -1.2565184 18
-3.756695 11.589437 -1.1366259 15
-4.9327054 15.217439 -1.1186148 27
-4.9289103 15.205729 -0.74542809 39
-4.5839753 14.141603 -0.34514454 6
-4.7196527 14.560169 0 15
-4.9021101 15.123052 0.36909807 17
-1.5009483 4.6304383 -1.644761 18
-1.6636969 5.1325192 -1.6835883 25
-4.9603896 15.302845 1.124893 17
-1.7742984 5.4737263 -1.6499653 16
-1.8667674 5.7589936 -1.5848476 12
-4.9731483 15.342205 1.8860551 89
-2.2179368 6.8423538 -1.7042942 25
-5.0199904 15.486713 2.2880058 10
-2.3574219 7.2726665 -1.6250379 24
-5.392951 16.6373 2.8734243 8
-2.5799263 7.9590945 -1.5763849 18
-5.4913588 16.940887 3.3553267 2
-2.7854586 8.6652861 -1.4953997 18
-2.9456427 9.1636028 -1.3527626 21
-3.3416991 10.395695 -1.2769608 18
-3.7289765 11.600477 -1.1368116 18
-4.8552122 15.104085 -1.1094069 20
-5.0091305 15.582909 -0.76331615 22
-4.5494094 14.152762 -0.34514454 3
-4.758122 14.802047 0 15
-4.832715 15.034098 0.36663774 17
-1.4768736 4.5944076 -1.6306759 19
-4.8281579 15.019921 0.73573869 12
-1.6581626 5.15838 -1.6907371 27
-4.9162688 15.294024 1.1233582 17
-1.7779812 5.5311236 -1.6659522 27
-4.8819795 15.187354 1.4883147 11
-1.8669012 5.8077445 -1.5970036 17
-4.9423347 15.375113 1.8886104 31
-2.1922786 6.819962 -1.6973774 31
-4.9803181 15.493277 2.2871709 20
-2.3528163 7.3193789 -1.634186 30
-5.3504725 16.644789 2.8724515 11
-2.5694942 7.9934421 -1.5819397 20
-5.399426 16.797081 3.3242209 6
-2.7758899 8.7242918 -1.5041543 21
-2.9508653 9.2742176 -1.3677933 19
-3.3650436 10.575931 -1.297868 18
-3.6945374 11.611491 -1.1368116 15
-4.9537392 15.569012 -1.1424716 6
-4.6727161 14.68579 -0.71868914 6
-4.7093272 14.800855 0 15
-4.7765632 15.01217 0.36575574 17
-1.4546164 4.5716863 -1.6210724 19
-4.7872019 15.045606 0.73629773 12
-1.6434276 5.1650972 -1.6913329 27
-4.8720746 15.31235 1.1236373 12
-1.7644751 5.5455351 -1.6687087 37
-4.838099 15.205569 1.4886863 11
-1.8660853 5.8648834 -1.6111858 20
-4.9436684 15.537361 1.9067299 11
-2.0534286 6.4536815 -1.6046927 18
-4.9361238 15.513649 2.2880058 27
-2.3387976 7.3505621 -1.6395917 19
-4.9384389 15.520925 2.6759615 13
-2.5451679 7.9991593 -1.5815693 26
-5.3632655 16.856104 3.3327377 10
-2.7612569 8.7682533 -1.5103148 21
-2.9280963 9.2980452 -1.3700202 24
-3.3449883 10.621867 -1.3022817 15
-3.6738288 11.666087 -1.1410847 21
-4.7511139 15.086959 -1.1060587 8
-4.6333256 14.712927 -0.71934134 10
-4.4611402 14.16616 -0.34481961 3
-4.6786108 14.85673 0 15
-4.7452164 15.068233 0.366777 17
-1.4501526 4.604898 -1.6313162 16
-4.7371416 15.042591 0.73545921 12
-1.6229351 5.1535606 -1.6859711 17
-6.0155997 19.10228 1.4004309 19
-1.7509018 5.5599141 -1.6714649 30
-4.7816 15.183766 1.4851564 11
-1.8626245 5.9146843 -1.6233418 22
-5.0986309 16.190485 1.9850155 14
-2.0260885 6.4337568 -1.5982369 24
-4.8865066 15.516892 2.2863359 13
-2.3363707 7.4190454 -1.6533139 25
-4.8846626 15.511038 2.6717465 18
-2.5290987 8.031045 -1.5863833 22
-5.3037863 16.841948 3.326813 10
-2.7420502 8.7928867 -1.5132331 22
-2.9021215 9.3061857 -1.3700202 24
-3.327143 10.669094 -1.3069278 13
-3.6530955 11.714321 -1.1448003 36
-4.732132 15.174449 -1.1114997 11
-4.4191847 14.170926 -0.34463391 3
-4.7209797 15.138687 0.36816967 17
-1.4519547 4.6559591 -1.6479622 25
-4.6683545 14.969935 0.73126674 14
-1.6045594 5.1453137 -1.681801 17
-5.9675822 19.136147 1.4016867 19
-1.7439553 5.5923123 -1.6797341 25
-5.5146208 17.683643 1.7281617 10
-1.8530135 5.9420276 -1.6294198 22
-5.0463047 16.181902 1.9822278 11
-2.0086946 6.4412479 -1.5986981 27
-4.958725 15.901061 2.3408918 29
-2.3296227 7.4703627 -1.6632936 26
-4.8530817 15.562297 2.678231 23
-2.5201211 8.0812302 -1.5949003 24
-4.8407154 15.522642 3.0635269 15
-2.70648 8.7811852 -1.5096663 22
-2.8980768 9.4028215 -1.3828241 15
-3.3022735 10.714239 -1.3111091 10
-3.6101205 11.713051 -1.1434999 21
-4.6905961 15.218657 -1.1135924 11
-4.6386895 15.050247 -0.73443437 14
-4.8045502 15.588382 0 16
-4.7290521 15.343428 0.37276542 18
-1.4415286 4.6770453 -1.6537243 28
-4.4492111 14.435484 0.70443463 8
-1.5824256 5.1341863 -1.6764392 17
-5.9734292 19.380816 1.4181492 13
-1.7299293 5.6127625 -1.6841443 22
-3.6112936 11.716857 1.1438713 5
-1.8401358 5.9703279 -1.6354978 20
-4.9680376 16.118818 1.9724712 11
-1.9798702 6.4236965 -1.5927036 18
-4.9701314 16.125612 2.3715098 22
-2.3215454 7.5322638 -1.6753526 26
-5.0810442 16.48547 2.8341911 20
-2.4985168 8.1064472 -1.5982329 26
-4.7863154 15.52922 3.0616753 19
-2.6944339 8.8241034 -1.5158269 21
-2.8757653 9.4179535 -1.3839374 22
-3.288137 10.768445 -1.3166844 21
-3.5910761 11.760552 -1.1472155 15
-4.6717157 15.29958 -1.1186148 27
-4.6348643 15.178894 -0.74011755 14
-4.3344297 14.194989 -0.34458748 3
-4.7537966 15.568388 0 16
-5.8718886 19.23007 0.46681556 8
-1.4303864 4.6844268 -1.6550047 31
-1.5399865 5.0433602 -1.6454601 22
-5.8620772 19.197939 1.4036398 25
-1.7163531 5.6209497 -1.6852469 18
-4.925736 16.131479 1.5735894 11
-1.8278903 5.9862275 -1.6385368 22
-4.8892765 16.012077 1.9578363 14
-1.9550904 6.4027996 -1.5862478 21
-4.9464087 16.199183 2.3804169 15
-2.3166735 7.5869622 -1.686164 21
-5.0459399 16.525141 2.8387303 14
-2.4968023 8.1768723 -1.6108234 24
-4.7462196 15.543575 3.0620453 3
-2.6726346 8.8410406 -1.5174482 19
-2.8884223 9.554863 -1.4028651 27
-3.2689714 10.813715 -1.3210981 15
-3.5933669 11.886811 -1.1585482 13
-4.5920196 15.190341 -1.109686 17
-4.6040168 15.230027 -0.74198085 21
-4.2901402 14.191729 -0.34421611 3
-4.5308914 14.98813 0 7
-4.6170354 15.273093 0.37044433 17
-1.4200395 4.6974726 -1.658206 25
-4.6606708 15.417439 0.75111121 9
-1.4999297 4.9617476 -1.61746 20
-5.806128 19.206594 1.4030817 19
-1.7073238 5.6478047 -1.6918622 27
-4.8541574 16.057489 1.5650436 11
-1.8201225 6.0209413 -1.6466409 22
-4.8060255 15.89827 1.9422721 11
-1.9417059 6.4231381 -1.5899369 24
-4.8868208 16.165539 2.3734581 15
-2.3062308 7.6289816 -1.6940647 24
-4.9980555 16.533503 2.8377578 23
-2.4796429 8.2026262 -1.6145264 22
-5.8191991 19.249834 3.7889526 8
-2.6866682 8.9893188 -1.5414419 16
-2.8850479 9.6530762 -1.4159473 22
-3.2639956 10.920998 -1.3329455 15
-3.5708342 11.947648 -1.1633787 19
-4.5362797 15.17793 -1.1077328 28
-4.5510011 15.227186 -0.74114239 14
-4.2426739 14.195556 -0.34398401 3
-4.4677491 14.948634 0 3
-4.5558643 15.24346 0.3693766 17
-1.4063609 4.7055402 -1.6594864 25
-5.7037687 19.08423 0.9288736 14
-1.4837886 4.9646058 -1.6168643 33
-5.8023238 19.413984 1.4168935 26
-1.6895732 5.6531401 -1.6918622 27
-5.4075727 18.093189 1.7617886 13
-1.8205909 6.0915117 -1.6643685 27
-4.7509389 15.896159 1.9401814 13
-1.9254196 6.4422579 -1.5931647 24
-4.8348794 16.177015 2.3729017 26
-2.2923372 7.6699271 -1.7015494 24
-5.0348186 16.845991 2.8886635 24
-2.4245965 8.1124535 -1.5952705 26
-5.6303768 18.838669 3.7045233 11
-2.6776912 9.0455227 -1.5498723 18
-2.864265 9.6757879 -1.418174 24
-3.2325759 10.919981 -1.331784 21
-3.5519805 11.998963 -1.1674659 22
-4.4880357 15.161056 -1.1056401 20
-4.4907084 15.170084 -0.73778838 14
-4.2060657 14.208531 -0.34403041 3
-4.4836674 15.146298 0 19
-4.5278625 15.295595 0.37035146 17
-1.3929622 4.7055726 -1.658206 22
-4.4169879 14.92105 0.72567672 6
-1.470787 4.968473 -1.6168643 25
-5.355062 18.089962 1.3192344 23
-1.6736771 5.6538568 -1.6907597 20
-4.8435583 16.362049 1.5919821 12
-1.8172694 6.138927 -1.6760181 27
-4.7188954 15.940925 1.9441305 11
-1.9339588 6.5331159 -1.6143761 18
-4.759346 16.07757 2.3564792 14
-2.2744722 7.6834059 -1.7032127 24
-5.5626516 18.791222 3.2197137 14
-2.4005618 8.1093493 -1.593419 24
-5.7026591 19.264181 3.7852495 35
-2.6946495 9.2030563 -1.5754873 15
-2.8427761 9.7089548 -1.4217925 24
-3.1811795 10.864706 -1.3238858 15
-3.5230746 12.032383 -1.1696954 22
-4.4391036 15.160904 -1.1046635 28
-5.6605287 19.332447 -0.93940145 16
-4.4779606 15.293612 -0.3699801 19
-4.458858 15.228371 0.36840177 17
-1.3662148 4.6660438 -1.6428404 22
-1.4619389 4.9929709 -1.6234175 25
-5.3064051 18.123005 1.32049 23
-1.6585135 5.6643338 -1.6924134 20
-4.8033791 16.405016 1.5947689 9
-1.8077439 6.1740012 -1.6841221 22
-4.7167869 16.109278 1.962947 20
-1.9183923 6.5518994 -1.6176039 21
-4.7132869 16.097324 2.3573143 21
-2.2599084 7.7182822 -1.70945 19
-5.4680476 18.675064 3.197017 21
-2.3786972 8.1239824 -1.5949003 20
-2.6799588 9.2546101 -1.5829449 15
-2.8233232 9.7496862 -1.4265245 17
-3.1434054 10.855015 -1.3215626 13
-3.500654 12.088689 -1.1741542 35
-4.3985429 15.189339 -1.1057796 25
-4.3778234 15.117788 -0.73396856 10
-4.4264488 15.285706 -0.36946946 29
-5.2954793 18.286697 0 12
-4.3830686 15.135901 0.36584857 17
-1.3497298 4.6609759 -1.6396391 28
-1.4412771 4.9771137 -1.6168643 27
-5.2631564 18.175079 1.3231407 17
-1.638492 5.6581488 -1.6891057 20
-4.758563 16.432583 1.5960695 9
-1.7953383 6.1997809 -1.6896937 26
-4.646317 16.04497 1.9534225 23
-1.9184325 6.6248579 -1.6342041 19
-4.8362837 16.700974 2.4436014 20
-2.2315576 7.7061625 -1.7052919 24
-5.3714452 18.54903 3.172699 17
-2.3759046 8.2046309 -1.6093421 22
-2.6611829 9.2928782 -1.5881327 12
-2.8385496 9.9122448 -1.4490705 17
-3.1111863 10.864294 -1.3215626 21
-3.5864787 12.52402 -1.2153982 17
-4.4050894 15.382617 -1.1188939 12
-5.5088658 19.237015 -0.93315929 16
-4.4504356 15.540967 -0.37531856 16
-4.687294 16.368078 0 14
-4.3541064 15.204583 0.3671948 17
-1.3390251 4.6758895 -1.6434807 24
-5.4368143 18.985411 0.92095441 10
-1.4312347 4.9978862 -1.6222259 27
-5.2053652 18.177189 1.3221642 17
-1.6058197 5.6075387 -1.6725676 17
-5.6390271 19.69154 1.9109731 16
-1.7827957 6.2255406 -1.6952652 19
-4.5631466 15.934553 1.938323 11
-1.9143064 6.6847773 -1.6475767 16
-4.8112488 16.80093 2.4561272 16
-2.2232263 7.7635288 -1.7165191 21
-5.308239 18.536425 3.1678352 14
-2.362915 8.2513227 -1.6171185 30
-5.1662722 18.040676 3.5356646 10
-2.6540499 9.3667307 -1.5994811 9
-2.8491905 10.055425 -1.4688331 17
-3.0840814 10.884408 -1.3229566 15
-3.5596304 12.562725 -1.2181849 20
-4.3670068 15.412135 -1.1201495 9
-4.2710705 15.073555 -0.73061454 7
-4.4326348 15.643751 -0.37750039 14
-5.1137342 18.047503 0 6
-4.3023591 15.18398 0.36640564 23
-1.33061 4.6960182 -1.6492428 24
-5.3843155 19.002443 0.92104763 14
-1.4354879 5.0661554 -1.6430771 25
-5.1632824 18.222368 1.3243964 17
-1.5456032 5.4547763 -1.6257092 29
-5.5411234 19.555855 1.8962961 11
-1.7738413 6.2602792 -1.7033693 19
-4.5354137 16.006481 1.9455242 13
-1.9141986 6.7556314 -1.6637158 20
-4.7821259 16.877182 2.4653125 20
-2.2079353 7.7922935 -1.721509 19
-5.2349291 18.475225 3.1548655 10
-2.3511131 8.2975998 -1.6248949 28
-5.107295 18.024778 3.5297399 7
-2.6549969 9.4771843 -1.6169902 9
-2.8401811 10.138211 -1.4796885 24
-3.0716023 10.964285 -1.3315517 10
-3.5717635 12.749643 -1.2352771 11
-5.4864783 19.584343 -1.422195 18
-6.212306 22.175232 -1.0739344 22
-4.3872809 15.660685 -0.37759325 21
-5.0445204 18.006744 0 18
-4.2594485 15.204379 0.36659133 5
-1.326894 4.7364349 -1.6620474 21
-5.3257575 19.010639 0.92067498 14
-1.421481 5.0740695 -1.6442688 22
-5.353003 19.107893 1.3875958 18
-1.5278567 5.4537845 -1.6240554 29
-5.4449387 19.436064 1.8831055 15
-1.7563038 6.2692413 -1.7043823 23
-4.4857607 16.012215 1.9445951 13
-1.9083215 6.8118782 -1.6761661 28
-4.7288265 16.879854 2.4636426 28
-2.1795292 7.7799716 -1.7173507 26
-5.157732 18.410862 3.1412475 3
-2.3286054 8.312109 -1.6263762 26
-5.4943852 19.612566 3.8374627 8
-2.6409998 9.5425406 -1.6267173 13
-2.8151815 10.171899 -1.4833071 30
-3.0684001 11.086836 -1.3452575 10
-3.5720565 12.906663 -1.2493967 14
-6.1944351 22.38192 -1.6239307 5
-6.1074328 22.067562 -1.0677854 22
-4.3396549 15.680171 -0.37773249 14
-4.9671154 17.947332 0 17
-5.1353741 18.555288 0.44699353 8
-1.3160495 4.7551899 -1.6671692 26
-5.2745285 19.058086 0.92216563 14
-1.3846526 5.0030684 -1.6198429 21
-5.2913461 19.118851 1.3871772 18
-1.5158421 5.4770865 -1.6295681 20
-4.5600157 16.476385 1.5949546 12
-1.7376301 6.2784576 -1.7053952 19
-4.4486771 16.074095 1.9504027 13
-1.8946965 6.8459744 -1.6830827 24
-4.6810513 16.913715 2.4664259 16
-5.1251297 18.518272 3.1568108 13
-2.3134875 8.3591633 -1.6341524 25
-7.0888233 25.61355 5.0072536 4
-2.63061 9.6027164 -1.6357961 13
-2.8152308 10.276651 -1.4975027 29
-3.1784496 11.602537 -1.4068173 24
-3.5661423 13.017761 -1.2592432 33
-6.4115119 23.40443 -1.696896 17
-6.3330965 23.118185 -1.117816 8
-6.1417518 22.419704 -0.53969741 19
-4.9417806 18.039358 0 18
-5.0899515 18.580238 0.44727203 16
-1.3086028 4.7768927 -1.6735716 32
-5.2568188 19.189365 0.92784882 14
-1.3690286 4.9974694 -1.6168643 22
-5.2412782 19.132637 1.3871772 18
-1.4979433 5.4680567 -1.6257092 29
-5.2939692 19.324978 1.8693575 15
-1.7196547 6.2773867 -1.7038757 16
-4.4034338 16.07419 1.9490088 11
-1.8896229 6.8978348 -1.6946107 28
-4.6419907 16.945013 2.4692094 16
-2.0266569 7.3980598 -1.6304437 36
-5.0547342 18.451681 3.1431928 10
-2.2999053 8.3955193 -1.6400775 29
-6.1815467 22.564972 4.4081011 21
-2.6201606 9.6771536 -1.6471447 14
-2.791975 10.311723 -1.5013995 22
-3.1481652 11.627255 -1.4086757 30
-3.5852723 13.241642 -1.2798653 18
-6.3144097 23.321285 -1.6895018 17
-5.3136854 19.625265 -0.9481591 5
-6.706975 24.771162 -0.59582114 15
-4.9243035 18.187145 0 6
-5.0494347 18.649298 0.44857183 8
-1.2954149 4.7844124 -1.6748521 30
-5.1805439 19.133528 0.92440164 14
-1.3546945 5.0033522 -1.61746 25
-5.9801788 22.086855 1.6000741 16
-1.4802061 5.4669094 -1.6240554 27
-4.4908285 16.586172 1.6031291 12
-1.7045623 6.2955341 -1.7074212 21
-4.3775282 16.167715 1.9587654 20
-1.8747442 6.9240742 -1.6996831 25
-5.121727 18.916296 2.754236 20
-2.0031648 7.3983755 -1.6291962 43
-4.95819 18.312298 3.1169295 13
-2.31197 8.5388994 -1.6667393 23
-6.103785 22.543375 4.4003248 31
-2.6002703 9.7111225 -1.6516839 13
-2.7728982 10.355829 -1.5066881 19
-3.118763 11.647515 -1.4100696 27
-3.5436411 13.234291 -1.2781931 30
-4.0369864 15.076767 -1.0914098 5
-5.8970284 22.02339 -1.0632203 22
-5.2616005 19.650284 -0.47229332 22
-4.9516034 18.49255 0 18
-5.1157613 19.105623 0.45920238 25
-1.2835181 4.7935023 -1.6767728 27
-4.0300493 15.050859 0.72660834 6
-1.3436786 5.0181813 -1.6210345 36
-5.9303398 22.147797 1.6032828 8
-1.4773638 5.5174499 -1.6378373 29
-4.4753919 16.714064 1.6142762 9
-1.6849716 6.2927942 -1.7053952 21
-4.5127006 16.853397 2.0403032 12
-1.8614396 6.9518418 -1.7052165 21
-6.0298891 22.519579 3.2764134 21
-1.9991924 7.4663019 -1.6429183 24
-4.912642 18.347042 3.120496 13
-2.3150561 8.6459446 -1.6863655 23
-6.0443602 22.573624 4.4029169 24
-2.6055682 9.8547096 -1.6747051 14
-2.8674228 10.845088 -1.576553 17
-3.0816505 11.655335 -1.4098372 24
-3.4939055 13.214555 -1.2752206 30
-6.1483669 23.254187 -1.6819681 11
-5.1858978 19.613962 -0.94610953 17
-4.1245089 15.599607 -0.37462229 10
-4.8715038 18.42487 0 12
-5.0245414 19.003683 0.45637068 8
-1.2694222 4.8011742 -1.6780531 27
-5.0975509 19.279819 0.9299916 18
-1.328396 5.0242233 -1.6216302 40
-5.08709 19.240253 1.3916416 12
-1.4610069 5.5257807 -1.6389397 16
-5.0840802 19.22887 1.8556095 15
-1.6548095 6.2587752 -1.6947587 21
-4.4759846 16.928947 2.0477369 12
-1.8410842 6.9632988 -1.7065998 18
-1.9877294 7.5179362 -1.6528981 22
-4.8408585 18.308962 3.1114173 10
-2.2954204 8.6816769 -1.6919199 23
-5.9854755 22.638103 4.4118042 7
-2.6005011 9.9478683 -1.6892959 17
-2.85466 10.920119 -1.5862951 17
-3.1139028 11.911818 -1.4398042 19
-3.5456328 13.563343 -1.3079185 31
-6.0576739 23.172819 -1.6748528 17
-5.1634464 19.752071 -0.9520722 17
-4.0789099 15.603323 -0.37443656 6
-4.8488684 18.548695 0 19
-4.9224043 18.829996 0.45186779 16
-1.2603234 4.8211985 -1.6838154 19
-5.0340943 19.257254 0.9282214 14
-1.3172585 5.0389957 -1.6252047 22
-5.0212345 19.208059 1.3882933 18
-1.4363328 5.4944987 -1.6284657 15
-5.1673565 19.767031 1.9061426 16
-1.6148167 6.1772647 -1.6714596 20
-4.4276905 16.937536 2.0472724 18
-1.8255706 6.9834757 -1.7102888 18
-5.1062293 19.533195 2.8374612 16
-1.9860252 7.5972733 -1.6691153 24
-4.778234 18.278494 3.1039598 6
-2.2935376 8.7736206 -1.7085837 23
-6.0678835 23.211874 4.5203037 3
-2.6007941 10.07829 -1.7100474 14
-2.8366673 10.992318 -1.5954806 30
-3.1067402 12.038873 -1.4539745 20
-3.5388272 13.713245 -1.321295 43
-6.0042815 23.267082 -1.6802939 17
-4.7314525 18.334764 -0.88303554 5
-5.250917 20.347733 -0.48789093 23
-4.8085575 18.633554 0 6
-4.8577228 18.824074 0.45135716 16
-1.24659 4.8306384 -1.6857361 17
-5.1343093 19.895868 0.9582212 12
-1.308099 5.0689907 -1.6335452 25
-4.9653468 19.241125 1.3895489 6
-1.4157 5.4859533 -1.6246066 22
-5.1121922 19.810163 1.9087436 16
-1.5929831 6.1729398 -1.668927 18
-4.3650222 16.914818 2.0428586 21
-1.8031342 6.9872923 -1.7098277 18
-5.0428543 19.541473 2.8363481 21
-1.9675227 7.6243114 -1.6736892 32
-4.7178226 18.281948 3.1020141 3
-2.277256 8.8245535 -1.7171006 27
-5.9905047 23.213696 4.5169711 3
-2.5883737 10.132419 -1.7181534 16
-2.8269579 11.066379 -1.6052227 27
-3.0861661 12.081072 -1.458156 20
-3.519604 13.777803 -1.3266827 21
-5.9459329 23.275883 -1.6798754 23
-4.6891127 18.355949 -0.88350141 5
-5.1086435 19.99824 -0.47921014 16
-5.2817888 20.676033 0 16
-4.8275509 18.897879 0.45284262 16
-1.2347835 4.8336697 -1.6857361 19
-6.1700673 24.153278 1.1625361 6
-1.3051608 5.1091681 -1.6454601 36
-4.9578247 19.407846 1.4007101 12
-1.4008644 5.4838085 -1.6229529 27
-5.0785608 19.880478 1.9143173 20
-1.5783749 6.1786885 -1.6694336 22
-4.3359723 16.973549 2.048666 25
-1.7879833 6.9992194 -1.7116721 21
-5.0137205 19.626656 2.8469253 10
-1.9605091 7.6745868 -1.6836691 30
-5.644207 22.094751 3.7466054 19
-2.2727141 8.8967419 -1.7300614 23
-7.3945909 28.946783 5.6289945 10
-2.5594256 10.151981 -1.7200989 17
-2.8100944 11.146261 -1.6155216 21
-3.0671384 12.165829 -1.4672158 14
-3.4665689 13.750173 -1.3229671 37
-5.7279286 22.719872 -1.63844 16
-4.9801388 19.753759 -0.95002252 23
-5.0541048 20.047146 -0.47999927 11
-5.0696459 20.108789 0 30
-4.7569199 18.868359 0.45177495 8
-1.2219088 4.8467107 -1.6889371 19
-1.2895712 5.1150942 -1.6460561 36
-4.8324518 19.167957 1.3822943 12
-1.3812808 5.4788609 -1.6201965 29
-5.0389633 19.987087 1.9230491 16
-1.5580114 6.1798644 -1.6684206 24
-4.2923431 17.025612 2.0533123 18
-1.7659872 7.0048018 -1.7116721 21
-4.9515567 19.640388 2.8466468 5
-1.9416512 7.7015743 -1.6882432 29
-5.568017 22.085583 3.7420659 19
-2.2606103 8.9667282 -1.7422814 19
-5.556633 22.040428 4.2825685 13
-2.5426393 10.213153 -1.7291776 16
-2.8382506 11.400551 -1.6511497 27
-3.0415823 12.217284 -1.4723263 25
-3.4315252 13.783588 -1.3251965 28
-5.6638594 22.75032 -1.6394166 22
-4.9215007 19.76845 -0.95002252 17
-4.9921803 20.052353 -0.47976714 22
-4.9741988 19.980127 0 30
-4.7250619 18.979404 0.45409602 24
-1.2079794 4.8521547 -1.6895775 22
-3.9518726 15.873694 0.76285028 2
-1.2932978 5.1948571 -1.6704817 17
-4.7871199 19.228678 1.3856425 18
-1.3766283 5.5295753 -1.6339784 24
-4.9791512 20.000017 1.9228632 16
-1.5233072 6.1187482 -1.6506928 15
-4.2475619 17.061405 2.0560999 12
-1.7466041 7.0156765 -1.7130555 21
-7.3075862 29.352766 4.2511821 23
-1.9258784 7.7357769 -1.6944804 21
-4.7715611 19.166182 3.2450044 14
-2.243964 9.0134478 -1.7500577 23
-5.4940553 22.068262 4.28479 13
-2.5208018 10.255151 -1.735014 24
-2.8308833 11.516626 -1.6667372 22
-3.0257056 12.309205 -1.4823153 20
-3.4039187 13.847856 -1.3303984 28
-5.6525226 22.995647 -1.6558791 23
-5.6587434 23.020954 -1.105518 24
-4.9302702 20.057373 -0.47953507 22
-4.9206181 20.018105 0 30
-4.8352914 19.67098 0.47029716 17
-1.1922191 4.8501978 -1.6876568 26
-6.0130706 24.462431 1.1747409 6
-1.2906376 5.2505846 -1.6871626 25
-4.7152767 19.182735 1.3813176 18
-1.3726046 5.5840435 -1.6488627 20
-4.9150281 19.995365 1.9210054 16
-1.493598 6.0762696 -1.6380304 13
-5.7028928 23.200563 2.793889 12
-1.7229911 7.0094891 -1.7102888 18
-4.8197818 19.607883 2.8377397 16
-1.9099195 7.7699528 -1.7007178 26
-4.7306843 19.245417 3.2560289 14
-2.2270601 9.0601473 -1.7578341 23
-5.4482512 22.164629 4.300343 16
-2.5117168 10.342697 -1.748632 32
-2.8029201 11.541807 -1.6692423 24
-3.0757036 12.66507 -1.5241295 27
-3.4427774 14.176599 -1.3610528 22
-5.5567431 22.881445 -1.6465318 16
-5.601511 23.065788 -1.1069155 24
-4.8987799 20.172096 -0.481949 16
-4.898684 20.171701 0 31
-4.610949 18.986872 0.45363182 8
-1.1795652 4.8571897 -1.6889371 21
-4.6835623 19.285877 0.92551959 7
-1.2755206 5.2523127 -1.6865668 31
-4.6409774 19.110523 1.3751791 18
-1.359275 5.5971947 -1.6516191 16
-4.8511863 19.976116 1.9178472 16
-1.4757117 6.0766559 -1.6370174 20
-5.6521497 23.274307 2.800858 13
-1.6942263 6.9764504 -1.7010664 18
-7.0907288 29.198059 4.2227907 22
-1.9006807 7.8265839 -1.7119449 21
-4.6392012 19.103209 3.2297652 14
