# .PCD v0.7 - Point Cloud Data file format
VERSION 0.7
FIELDS x y z intensity
SIZE 4 4 4 4
TYPE F F F F
COUNT 1 1 1 1
WIDTH 1429
HEIGHT 1
VIEWPOINT 0 0 0 1 0 0 0
POINTS 1429
DATA ascii
2.7877045 30.930798 -2.1716585 10
3.5554647 39.449429 -0.91961181 28
4.2693229 47.370003 0 38
4.2755313 47.438881 1.1058552 31
0.44181854 4.9021692 -1.0462117 4
0.48075157 5.3341484 -1.009079 1
0.98479754 10.595672 -1.7483077 1
1.090379 11.731647 -1.6558818 30
1.2098558 13.017126 -1.2196712 11
2.9278076 31.500978 -2.2122567 11
3.3348269 35.880196 -1.6804507 21
3.6893115 39.69418 -0.92555374 28
4.2894387 46.151093 0 37
0.4561995 4.9083591 -1.1680133 3
0.50330347 5.4151621 -1.1559892 2
0.59786862 6.432611 -1.2171899 6
1.0068555 10.514298 -1.7353381 6
1.1123724 11.61618 -1.640016 17
1.2435418 12.985945 -1.2170702 11
3.428529 35.803127 -1.6772829 21
3.8211026 39.90266 -0.93066007 28
4.0909476 42.720573 0 32
0.48418802 5.0562344 -1.2035195 14
0.50070667 5.228734 -1.116486 4
0.48524356 5.0672569 -0.95908791 1
1.0118618 10.246126 -1.6915656 4
1.1596775 11.742911 -1.6583868 17
1.344707 13.616522 -1.6000922 13
1.290675 13.069393 -1.2252448 8
3.3672159 34.096474 -2.3958559 33
3.6022789 36.476727 -1.7093323 22
3.9365244 39.861301 -0.92996377 57
4.2182655 42.714218 0 32
0.48088264 4.8694243 -1.2809458 11
0.49038914 4.9656873 -1.1823081 6
0.51929361 5.2583742 -1.1231391 4
0.52036363 5.2692089 -0.9975996 5
1.198575 11.758914 -1.6611702 17
1.3304758 13.052958 -1.5343509 9
1.3335484 13.083103 -1.2269168 8
3.5281415 34.613697 -2.4329662 36
4.0136566 39.376961 -1.8458219 27
4.0749235 39.978035 -0.93298119 28
4.7385931 46.489128 0 37
0.50046271 4.9099121 -1.1693966 7
0.81773096 8.0225496 -1.5193582 6
1.1451648 10.950677 -1.8089409 8
1.2237921 11.702551 -1.6536549 6
1.2673297 12.118881 -1.4249369 2
1.7366667 16.606932 -1.5577979 3
3.6664691 35.06073 -2.4650543 38
4.094492 39.153713 -1.8358531 27
4.1828923 39.999046 -0.93372393 28
0.5000928 4.7821541 -1.3787382 18
0.5181722 4.9550385 -1.1804636 6
0.85009629 8.1290731 -1.7373102 11
0.57339442 5.4831028 -1.0387033 1
1.1003916 10.229057 -1.6902686 21
1.9840115 18.443041 -1.7305769 4
3.8018429 35.341301 -2.4855626 19
4.2835822 39.819469 -0.92982453 28
4.3435631 40.377041 0 29
0.53973991 5.0173326 -1.1956805 6
0.73050517 6.7906547 -1.2868072 6
1.1203586 10.115703 -1.672111 4
1.3353726 12.057061 -1.7048707 10
1.7014904 15.362734 -1.8075372 48
2.4845338 22.432823 -2.1056745 15
3.9572272 35.729752 -2.5137444 20
4.4174733 39.885307 -0.93168139 28
5.2570424 47.465767 0 39
0.53686303 4.8473291 -1.1555631 6
0.86650562 7.823668 -1.4830683 6
1.3649226 12.035811 -1.7023655 3
1.6817125 14.829247 -1.7452805 7
2.5454946 22.446028 -2.1075325 15
4.1316814 36.432938 -2.5639689 44
4.5305614 39.950237 -1.8749832 28
4.5250254 39.901421 -0.93233132 28
5.3893952 47.523388 0 39
1.1882906 10.223193 -1.6909171 1
1.4044768 12.083103 -1.7096025 3
1.8786219 16.162306 -1.9027808 16
2.3331926 20.073101 -1.885335 5
2.874568 24.730705 -1.7409822 6
4.6933246 40.377972 -1.8956661 27
4.6669178 40.150787 -0.93845898 28
0.73340011 6.3096442 -1.5050911 10
0.83503723 7.1840568 -1.5372993 6
1.3540238 11.338352 -1.8760587 7
1.4151856 11.85051 -1.6773144 1
1.9223186 16.097153 -1.8958118 20
3.0144625 25.242569 -1.777674 18
4.8485732 40.601082 -1.9068462 27
5.0542989 42.323792 -0.9896155 27
0.67198122 5.6270504 -1.483547 10
0.7631405 6.3904018 -1.5249192 10
1.3789735 11.279676 -1.8669801 10
2.73209 22.347849 -2.1004727 22
3.0345783 24.822132 -1.7486553 6
5.2112832 42.627064 -0.99704295 26
0.64942104 5.3121104 -1.4009869 11
0.8322286 6.8074327 -1.6249819 15
1.0103548 8.2644625 -1.7697444 6
1.4028765 11.215074 -1.8569285 17
1.6893196 13.504997 -1.9127952 21
3.9466019 31.550482 -2.223418 11
5.3370137 42.665909 -0.99829638 26
0.61526376 4.9186282 -1.2976604 4
0.63842797 5.1038113 -1.2187364 4
1.0339177 8.2654905 -1.7705762 6
1.2068218 9.6477451 -1.8318949 27
1.4516917 11.332231 -1.8770316 12
1.7228367 13.448849 -1.9055582 40
2.1023157 16.411144 -1.9348384 34
3.1714113 24.756746 -1.745307 6
0.62813312 4.9033475 -1.2941148 9
0.65282571 5.0961032 -1.217353 6
1.0522215 8.2138758 -1.7601806 6
1.2424327 9.6987076 -1.8422636 18
1.4975604 11.405885 -1.8900012 14
1.7942108 13.665266 -1.9370114 21
3.0797002 23.455952 -2.2071126 34
5.0841274 38.722294 -2.7309659 27
5.4806056 41.741993 -1.9633054 26
0.65209711 4.9665737 -1.311336 14
0.66984475 5.1017456 -1.2191975 6
1.2746853 9.7083979 -1.8448557 18
1.5194334 11.32733 -1.8776799 17
1.8342054 13.673944 -1.9389598 25
2.066025 15.402153 -1.817294 11
3.1285067 23.322922 -2.1954081 34
4.1405249 30.867487 -2.1777971 20
0.68408805 5.0998554 -1.2191975 6
1.2996992 9.6892176 -1.8418932 22
1.5742251 11.477234 -1.903295 14
1.8874217 13.760664 -1.9520421 27
2.1082101 15.37037 -1.8142741 15
3.0686231 22.372471 -2.1067891 31
4.2619238 31.072495 -2.1931436 32
1.1268865 8.2158136 -1.7626755 6
1.3148236 9.5860109 -1.8230077 29
1.6140233 11.513556 -1.910104 15
1.9353884 13.805999 -1.9592791 24
3.0304863 21.617826 -2.0365629 14
4.3330431 30.909552 -2.1825407 21
5.7814212 41.241482 -1.9420632 27
0.70723146 5.045001 -1.3336221 7
0.71650094 5.1111245 -1.2228864 6
1.1512569 8.2124348 -1.7626755 6
1.3383471 9.5470333 -1.8163421 47
1.6546992 11.597496 -1.9246949 15
1.968562 13.797305 -1.9587224 20
3.0655866 21.486156 -2.0248585 14
4.4063125 30.883068 -2.1814244 21
0.72529727 5.0834808 -1.3442587 1
1.0187159 7.1400003 -1.7089053 14
1.3658381 9.5729189 -1.8218967 47
1.681722 11.527797 -1.913995 28
2.0290494 13.908641 -1.9754231 22
2.430274 16.658939 -1.9687544 35
2.9430544 20.173925 -1.9020555 5
4.5116587 30.926327 -2.1854703 10
6.6109633 45.316551 -2.135664 24
1.0431069 7.1502447 -1.7121332 14
1.1683016 8.0084238 -1.7202615 27
1.4217222 9.7455616 -1.8555944 18
1.7072272 11.478158 -1.9065374 35
2.0798259 13.98324 -1.9868354 22
3.2691965 21.979708 -2.0731623 7
4.6241217 31.089243 -2.1978869 11
6.8814979 46.266201 -2.1813159 23
0.73666191 4.9527802 -1.3108294 1
1.0676498 7.1781034 -1.7195112 14
1.4558696 9.7882109 -1.8644818 18
1.7664014 11.624928 -1.9318281 24
2.124635 13.982512 -1.9876704 20
2.5410175 16.722782 -1.9780465 35
3.3283556 21.90436 -2.0670314 7
6.5373025 43.022877 -2.0293605 25
1.0831773 7.1285372 -1.7084444 18
1.2304951 8.0980558 -1.7410527 21
1.4898586 9.8049622 -1.8685549 15
2.1673133 14.00001 -1.9910105 20
2.5819376 16.678322 -1.9736328 39
3.442831 22.239365 -2.0995438 15
1.1015933 7.115869 -1.7061387 18
1.2587931 8.13132 -1.7489533 21
1.5118243 9.7658033 -1.8618896 18
1.8220799 11.556397 -1.922101 26
2.206398 13.993904 -1.9910105 22
2.6111741 16.561165 -1.960624 48
5.2255526 33.142651 -2.3461893 15
0.77804613 4.9346957 -1.3077904 1
1.1220653 7.1166101 -1.7070609 14
1.2817986 8.1297054 -1.7493691 26
1.5473528 9.813962 -1.8718878 18
1.8511692 11.505799 -1.9146434 28
2.2641966 14.07294 -2.0032578 22
2.6079741 16.209661 -1.9199711 45
3.7085474 23.05019 -2.1781304 33
5.785388 35.958633 -2.546809 21
6.9458337 43.171295 -2.0391431 25
1.0197473 6.33816 -1.6805766 9
1.1438009 7.1092062 -1.7061387 14
1.3017411 8.0908718 -1.7418842 45
1.575994 9.7954693 -1.8692957 22
1.8916878 11.577204 -1.9272889 36
2.2931449 14.034138 -1.9985259 27
2.6639085 16.303225 -1.9318185 38
3.8570173 23.605097 -2.2314503 35
5.8764462 35.964081 -2.5482039 21
7.632163 46.709137 -2.2071228 23
1.0411583 6.3719301 -1.6902001 9
1.162109 7.1121526 -1.707522 14
1.2107756 7.4099946 -1.5959303 6
1.5983379 9.7818909 -1.8674442 22
1.9767082 11.863209 -1.975925 22
2.3447142 14.071796 -2.0049279 27
2.7448289 16.473085 -1.952958 21
3.697473 22.190374 -2.0988007 7
1.1850884 7.1123052 -1.7084444 14
1.625187 9.7535563 -1.8630005 27
2.0133045 11.853048 -1.9752766 16
2.3829379 14.029214 -1.9999176 27
2.7786009 16.358625 -1.9404137 38
6.1497436 36.205757 -2.5680149 22
1.0614104 6.2489061 -1.6593035 6
1.2093805 7.120059 -1.7112111 14
1.3965384 8.2219248 -1.7726551 19
1.6413374 9.6631451 -1.8467072 38
2.0399182 11.834479 -1.973007 16
2.3903012 13.867208 -1.9776499 33
2.7581697 16.001379 -1.8988318 61
3.5964077 20.864372 -1.9752544 13
6.161273 35.744305 -2.5363452 21
7.9366746 46.044205 -2.1788933 23
1.2211571 7.0844798 -1.703372 14
1.6736275 9.7094631 -1.8563349 72
2.0740125 11.810518 -1.9700886 18
2.4054196 13.697723 -1.9545472 38
2.836596 16.153069 -1.9178804 33
6.3159742 35.96648 -2.5535057 21
8.0902624 46.07021 -2.1813159 23
1.2457623 7.0940256 -1.7065998 14
1.3020173 7.414371 -1.6000886 9
1.7527318 9.9809761 -1.9092885 22
2.1035161 11.785253 -1.9668463 18
2.4213872 13.566172 -1.936733 25
2.7623179 15.476285 -1.8384334 7
3.8086722 21.338636 -2.0222576 13
6.4251451 35.997803 -2.5569932 21
1.0110564 5.6645899 -1.6499653 7
1.26967 7.1135092 -1.7121332 14
1.7878478 10.016675 -1.9170648 15
2.1145053 11.646916 -1.9447979 24
2.4725995 13.619336 -1.9453617 21
2.7706158 15.260841 -1.8138095 11
3.5543199 19.577566 -1.8563526 5
6.6099844 36.408485 -2.5875466 22
8.452548 46.557518 -2.2066572 23
1.0409108 5.7334456 -1.6709137 10
1.1439848 6.301188 -1.6765246 6
1.2963347 7.1403475 -1.7195112 14
1.4921697 8.2190275 -1.7755659 19
1.813701 9.9900551 -1.9129916 15
2.1223152 11.507051 -1.9224253 22
2.4980407 13.54421 -1.9356197 21
8.9383364 48.463066 -2.298147 21
1.0492425 5.6889229 -1.6587857 12
1.144377 6.2047367 -1.651706 20
1.3137939 7.1233034 -1.7162833 14
1.5175945 8.2282963 -1.7784768 24
1.8383765 9.967556 -1.9096588 18
2.1602843 11.510025 -1.9240465 21
2.5226872 13.440913 -1.9219806 21
2.8541658 15.207036 -1.8093957 7
3.8353693 20.434902 -1.9397696 18
7.0809712 37.727516 -2.6842291 25
1.0734974 5.7196097 -1.6687087 10
1.1699363 6.2334375 -1.6603165 27
1.3433512 7.1573944 -1.7255057 15
1.5521039 8.2696323 -1.7884564 45
1.8606255 9.9134388 -1.9004014 20
2.1743116 11.408954 -1.9081587 31
2.5565012 13.414362 -1.9191972 23
3.1190054 16.36591 -1.9483118 17
3.6560597 19.183916 -1.8219825 5
7.2045941 37.803631 -2.6910653 25
8.9179773 46.794022 -2.2214708 22
1.2021885 6.3080707 -1.6810831 20
1.3724402 7.2014084 -1.7370337 15
1.6085173 8.4401417 -1.8262964 21
1.8761576 9.844492 -1.8881812 20
2.1855376 11.29627 -1.8903254 24
2.5570745 13.216613 -1.8919193 23
3.1797783 16.435148 -1.9576039 21
3.7009048 19.128666 -1.8177096 21
7.4112968 38.30637 -2.7283154 26
9.0440321 46.745403 -2.2203526 22
1.0067381 5.2034726 -1.6538006 5
1.1039594 5.7059755 -1.6665035 7
1.2271456 6.3426809 -1.6912131 19
1.3947585 7.2090125 -1.7398005 15
1.6361625 8.4567442 -1.8308706 19
1.8935548 9.7871141 -1.8781829 20
2.2076898 11.221572 -1.8789768 29
2.5993578 13.212399 -1.892476 38
3.24828 16.510838 -1.9678253 21
3.7271678 18.945 -1.8013605 20
4.6882057 23.829905 -1.6982911 5
9.238699 46.959824 -2.2319055 22
1.0208731 5.1890445 -1.6502262 10
1.1140907 5.6628647 -1.6549268 7
1.2399741 6.3027239 -1.6815896 18
1.4159021 7.1969566 -1.7379559 18
1.6600851 8.4381256 -1.8279598 19
1.9140563 9.7290478 -1.8681847 20
2.6544688 13.30849 -1.9072284 21
3.2949884 16.51981 -1.969916 17
3.7915516 19.009388 -1.8084203 26
4.6971073 23.549496 -1.6791778 17
9.2928219 46.590649 -2.215508 23
1.0352004 5.1900983 -1.6514176 11
1.1168777 5.5995965 -1.6372859 12
1.2640384 6.3374043 -1.6917197 16
1.4518677 7.279108 -1.7587062 15
1.6756636 8.4011354 -1.8208908 17
1.9137611 9.5948648 -1.8433744 22
2.1998053 10.8609 -1.8206135 42
2.699053 13.32579 -1.9108468 23
3.3297899 16.439871 -1.9615531 21
3.8313305 18.916082 -1.8006175 20
4.7420034 23.412266 -1.6703885 5
9.806982 48.419125 -2.3038301 21
0.95011181 4.6909013 -1.6172309 13
1.0536263 5.2019739 -1.6561837 11
1.1205101 5.5321932 -1.6185427 15
1.2812989 6.3260407 -1.6896937 16
1.4676627 7.2461581 -1.7517895 19
1.6908727 8.3481932 -1.8104951 21
1.9379277 9.567955 -1.839301 24
2.2452166 10.928174 -1.8329347 26
2.746217 13.366701 -1.9178054 19
3.3656888 16.381865 -1.9557456 21
3.8260264 18.622473 -1.7736789 20
4.9523077 24.104439 -1.7207527 6
5.2846804 25.7222 -1.2245853 9
0.96854526 4.7142143 -1.6261944 13
1.1560726 5.6269689 -1.6472089 14
1.3071352 6.3622379 -1.7003301 16
1.4957237 7.2801576 -1.7610118 19
1.7098466 8.32236 -1.8059212 19
1.9464425 9.4739475 -1.8222669 22
2.2441931 10.76111 -1.8060226 57
2.7757604 13.310023 -1.9108468 25
3.1693354 15.197251 -1.8154355 3
3.8568764 18.494072 -1.7625318 20
4.7643533 22.845507 -1.6318829 5
0.98601109 4.728013 -1.6319563 13
1.0898069 5.2257233 -1.6657157 12
1.1813996 5.6649179 -1.659337 13
1.3374635 6.413259 -1.7150187 19
1.5252662 7.3137898 -1.7702342 15
1.7333362 8.3115053 -1.8046737 19
1.9548852 9.3738527 -1.8041221 36
2.5851793 12.214727 -1.7546946 7
2.9774935 14.068375 -1.6816299 3
3.9216249 18.529306 -1.7669905 20
5.0035515 23.641306 -1.6897808 5
5.6990786 26.927605 -1.2835598 10
0.99964195 4.7232132 -1.6313162 13
1.0898888 5.1496215 -1.6424814 20
1.2089494 5.7121716 -1.6742214 11
1.3508763 6.3827624 -1.7079278 19
1.5473615 7.3111362 -1.7706953 15
1.7494814 8.2661333 -1.7959414 19
1.9863503 9.3853168 -1.8074548 24
2.0324523 9.456378 -1.5891054 6
2.8349588 13.190193 -1.8960944 42
2.9953825 13.936596 -1.6669948 6
3.9701982 18.472113 -1.7627176 20
4.562562 21.228201 -1.5183194 10
5.6375618 26.229847 -1.2511379 10
1.031597 4.7997046 -1.6588461 13
1.0823931 5.0360427 -1.6073322 46
1.2297183 5.7215018 -1.6780803 10
1.3672644 6.3614616 -1.7033693 19
1.5666441 7.289114 -1.7665452 15
1.7709221 8.2395573 -1.7913673 19
2.0055032 9.3309908 -1.7981974 24
3.0458894 14.004939 -1.6760546 10
4.0330939 18.544085 -1.7705204 10
4.542335 20.885567 -1.4946022 19
1.0441264 4.8008728 -1.6601267 12
1.1409491 5.2460613 -1.6752476 13
1.2449198 5.7241163 -1.6797341 12
1.3852705 6.3694463 -1.7064083 19
1.5819676 7.2738552 -1.7637786 15
1.7843966 8.2046204 -1.7847141 19
2.0044875 9.2165937 -1.77709 24
2.402633 10.882522 -1.8309892 15
2.6643457 12.067928 -1.7368804 7
3.6332536 16.456514 -1.572289 12
4.658247 21.099134 -1.5109253 20
1.0563433 4.7846174 -1.6556451 13
1.1574234 5.2424512 -1.6752476 13
1.2583362 5.6995268 -1.6736702 13
1.4157006 6.4122953 -1.7190708 19
1.6069075 7.2783513 -1.7660841 15
1.8004613 8.1550369 -1.7751501 21
1.9974142 9.0471182 -1.7456141 23
2.7287033 12.187527 -1.7552513 7
3.1222708 13.945363 -1.6711763 14
3.685986 16.46315 -1.573961 16
4.4043694 19.671749 -1.4096388 13
1.0742621 4.7981024 -1.6614071 12
1.1746432 5.2464461 -1.6776307 13
1.2748231 5.693891 -1.6731188 13
1.4342991 6.406178 -1.7185643 19
1.619994 7.235569 -1.7568618 15
1.8233702 8.1439323 -1.7739028 22
2.0225339 9.0334797 -1.7441328 17
2.3996871 10.587923 -1.7836502 78
3.1592054 13.939078 -1.6714087 42
3.7356737 16.482578 -1.5767479 16
4.6190214 20.380093 -1.4612586 4
1.084725 4.7860351 -1.658206 12
1.1875294 5.2396293 -1.6764392 13
1.2901493 5.6924105 -1.6736702 12
1.4489263 6.3929672 -1.7160318 21
1.6380696 7.2275076 -1.7559395 15
1.8468456 8.1486712 -1.7759819 19
2.0466096 9.0300722 -1.7445033 19
2.4851241 10.807288 -1.8219105 21
3.2003074 13.91747 -1.6700147 23
3.7691364 16.39119 -1.5691307 16
4.602541 20.015493 -1.4361463 13
12.450486 54.144573 -2.5908773 33
1.1006037 4.7862964 -1.6594864 12
1.2022719 5.2284303 -1.6740562 13
1.3179344 5.7314224 -1.6863495 12
1.4694356 6.3902693 -1.7165383 19
1.6524796 7.1862903 -1.7471783 15
1.8684888 8.1256685 -1.7722393 22
2.0199103 8.7841692 -1.6982152 59
2.5049965 10.756098 -1.8144529 17
2.9020061 12.4608 -1.7981167 45
3.2639389 14.014888 -1.6827915 17
3.8054068 16.339874 -1.5652292 12
4.2538452 18.265406 -1.3114218 4
6.3159947 27.119982 -1.2985598 10
1.1182622 4.8016586 -1.6658889 13
1.2134024 5.2101769 -1.6692901 15
1.3391662 5.7501888 -1.6929647 12
1.4907845 6.4012165 -1.7205902 19
1.6672429 7.1589031 -1.7416449 18
1.8760846 8.0556393 -1.7581013 27
2.0805404 8.9335442 -1.7282099 23
2.3347974 9.9000444 -1.6711384 19
3.2629414 13.835575 -1.6623489 13
5.030252 21.329353 -1.5324101 5
1.132103 4.8003607 -1.6665291 13
1.228387 5.2086263 -1.669886 13
1.3574268 5.7557826 -1.6957211 13
1.5228678 6.4572883 -1.7367984 16
1.6720418 7.0898175 -1.7259668 18
1.876572 7.9570704 -1.7377261 45
2.0526984 8.7038841 -1.6848842 87
2.3393941 9.7894211 -1.6536294 4
3.4494202 14.434432 -1.7355238 39
4.2040153 17.592108 -1.687475 13
4.2523303 17.794287 -1.2793337 3
6.0500116 25.316858 -1.213871 9
1.1459019 4.7951374 -1.6658889 13
1.2451688 5.2105289 -1.6716732 13
1.3727129 5.7442493 -1.6935159 15
1.5447205 6.4640322 -1.7398374 16
1.6957862 7.0961814 -1.7287334 15
1.9101785 7.9933267 -1.7468742 22
2.6411064 10.900376 -1.5762746 6
3.5022323 14.454415 -1.7392406 32
3.8315978 15.813773 -1.5180402 3
6.155993 25.407019 -1.8280382 13
6.1346874 25.319086 -1.214896 19
1.1502514 4.7473187 -1.6505231 12
1.2583839 5.193603 -1.6675029 13
1.3916565 5.7436461 -1.6946186 15
1.5641077 6.4553866 -1.7388244 16
1.7199031 7.0983853 -1.7305781 15
1.9265264 7.9511614 -1.7389735 26
1.9600416 8.0894852 -1.5682384 2
2.6033146 10.606777 -1.79435 22
3.5919845 14.63495 -1.7622385 25
3.7854712 15.42328 -1.4816265 7
6.2407446 25.426886 -1.2209517 9
1.1693014 4.7641263 -1.6575658 13
1.2724243 5.1842837 -1.6657157 17
1.4132764 5.758162 -1.7001313 15
1.5800279 6.4375639 -1.7352788 16
1.7400311 7.0894704 -1.7296557 15
1.9407858 7.9074121 -1.7306571 22
1.9573337 7.974834 -1.5471309 8
2.5836074 10.416497 -1.7632228 37
2.7157743 10.949363 -1.5854601 9
3.6616781 14.763023 -1.7787319 18
5.8918285 23.754465 -1.7114053 6
1.1859534 4.7814846 -1.6646084 12
1.2906003 5.2033963 -1.6728647 17
1.4333551 5.7789502 -1.7072979 15
1.5943518 6.428051 -1.7337594 16
1.7535964 7.0700879 -1.7259668 15
1.9398453 7.8209996 -1.7127765 26
1.9744434 7.9604907 -1.5452795 8
2.607662 10.373877 -1.7573864 37
2.7477486 10.931173 -1.5840684 8
3.7196658 14.797682 -1.7843071 48
4.167192 16.578043 -1.5947689 12
5.9513559 23.675856 -1.7070805 5
1.2000465 4.7740598 -1.6633278 12
1.3213708 5.2567158 -1.6913329 13
1.4505674 5.7706895 -1.7061952 17
1.6135968 6.4192576 -1.7327465 16
1.7705822 7.0437813 -1.7208945 18
1.9539165 7.7731276 -1.7036285 22
2.032984 8.087676 -1.5712007 12
2.6828332 10.548256 -1.7881894 15
2.761663 10.858196 -1.5746045 6
3.8123846 14.989381 -1.8086988 48
4.0662117 15.98737 -1.5390338 11
6.4964395 25.54244 -1.8429661 6
1.2171091 4.7853808 -1.6684498 13
1.3191025 5.1863947 -1.669886 22
1.4747316 5.7982907 -1.715567 15
1.6253154 6.3903503 -1.7261618 14
1.7758532 6.9822283 -1.7070609 18
1.972721 7.7562656 -1.7011336 26
2.2992427 9.0400705 -1.7574638 10
2.708708 10.519225 -1.7846228 21
2.8116505 10.919001 -1.5846251 8
3.849416 14.949147 -1.8052143 41
4.184618 16.250898 -1.1734434 6
1.2204365 4.7395458 -1.6537243 12
1.2873535 4.9994173 -1.6109068 46
1.4996014 5.823678 -1.7243874 12
1.6331737 6.3424044 -1.7145123 16
1.780064 6.9128504 -1.6913829 17
2.0152411 7.8261571 -1.7177665 17
2.323607 9.0236912 -1.7556123 12
2.7488661 10.545518 -1.7904592 19
2.8585212 10.96619 -1.592697 9
3.880724 14.887683 -1.7991744 22
4.0650744 15.594908 -1.503549 10
4.2323117 16.236483 -1.173304 13
3.9765012 15.255114 -0.73517972 3
1.2354485 4.7395701 -1.6550047 13
1.3407066 5.1433735 -1.6585667 31
1.5163878 5.8173428 -1.7238361 12
1.6300223 6.2532802 -1.6917197 26
1.8000748 6.9056554 -1.6909218 14
2.0463469 7.8504324 -1.7244197 17
2.3523521 9.0243654 -1.7570935 12
2.6489968 10.04736 -1.7071292 100
3.8797405 14.715439 -1.7796611 30
3.9984393 15.165651 -1.4632339 31
3.9851668 15.115309 -1.093084 2
1.2549578 4.7599201 -1.6633278 13
1.374046 5.2116084 -1.681801 16
1.5316458 5.8093681 -1.7227336 12
1.5858203 6.0148458 -1.6284068 33
1.8248085 6.9213023 -1.6959941 14
2.0567889 7.8011789 -1.7148558 19
2.792769 10.466584 -1.7797592 32
3.7835791 14.179888 -1.7162429 49
3.9910581 14.957466 -1.4442838 17
6.312726 23.658485 -1.7122425 6
1.272496 4.76899 -1.6678094 13
1.3934422 5.2222652 -1.6865668 16
1.5463992 5.7955093 -1.7199771 13
1.6171292 6.0605869 -1.6420823 47
1.84584 6.917737 -1.6964552 14
2.0789201 7.7912617 -1.7140242 19
2.7613239 10.233907 -1.7414987 60
3.3128459 12.277936 -1.7872611 26
3.6239357 13.430883 -1.6268067 27
6.5560074 24.297611 -1.7598163 6
1.2764319 4.7306604 -1.6556451 15
1.4144875 5.2423162 -1.6943116 16
1.551561 5.7503324 -1.7078491 16
1.6683229 6.1830707 -1.6765246 22
1.8565345 6.8806133 -1.6886162 17
2.0247378 7.5040016 -1.6520665 100
2.4222786 8.9773512 -1.7519093 19
2.6648462 9.7611265 -1.6623839 4
3.395154 12.436189 -1.8117555 44
3.8714595 14.18086 -1.7190305 14
4.1023092 15.026444 -1.4532015 3
6.6679893 24.424334 -1.7704192 12
1.4275179 5.2288885 -1.6913329 15
1.5660803 5.7364321 -1.7050928 17
1.6902238 6.1911602 -1.68007 20
1.8600229 6.8131213 -1.6733993 13
2.0418363 7.4790902 -1.6479082 69
2.4411337 8.9416857 -1.7463546 17
2.9213037 10.57688 -1.8027804 19
3.4051507 12.328698 -1.7975599 46
3.9003005 14.121439 -1.713223 17
4.1315055 14.95854 -1.4478137 14
6.7037854 24.271744 -1.7607929 12
1.2747179 4.6152472 -1.6178713 25
1.4506519 5.252234 -1.7002691 15
1.5795126 5.7187877 -1.7012339 17
1.7091029 6.1879826 -1.6805766 20
1.8688332 6.7663026 -1.6632546 13
2.0228755 7.324029 -1.6150582 19
3.420929 12.244149 -1.7867044 31
3.6310821 12.996326 -1.5780234 25
3.9776037 14.236593 -1.3790737 3
6.8273067 24.436216 -1.7741863 12
1.3215457 4.7300611 -1.6594864 18
1.4780444 5.2901993 -1.7139714 16
1.595438 5.7103729 -1.7001313 17
1.7212069 6.1605239 -1.6744986 20
1.8758079 6.71387 -1.6517267 16
2.0224869 7.2388616 -1.5975935 30
2.2112072 7.9143267 -1.548242 2
2.9481649 10.44644 -1.7833259 36
3.5177977 12.464859 -1.5146053 48
3.5410593 12.547283 -1.2163271 8
7.0885019 25.117186 -1.8249688 19
1.323631 4.6901145 -1.6466817 27
1.4934438 5.2918243 -1.7157586 15
1.609337 5.7024765 -1.6990288 17
1.7325987 6.1392379 -1.66994 20
1.8933773 6.7089362 -1.6517267 16
2.5164459 8.9166994 -1.7456141 10
2.782526 9.7487602 -1.6656263 32
3.3935902 11.889664 -1.7377155 12
3.5564048 12.460094 -1.5153021 21
3.6356635 12.737782 -1.2358345 11
7.014605 24.576122 -1.7871609 19
1.5065199 5.2781901 -1.71278 17
1.6251957 5.6939783 -1.6979262 16
1.74656 6.1191859 -1.6658881 22
1.91114 6.6958027 -1.6498822 13
2.5461304 8.9205322 -1.7478359 10
2.937319 10.176572 -1.7402017 60
3.4497271 11.951849 -1.7482926 11
3.584549 12.41895 -1.5115854 12
3.8650696 13.390837 -1.3003014 3
6.9049187 23.92263 -1.7411215 6
1.3356788 4.6275635 -1.6274747 28
1.5158221 5.2516842 -1.7056309 18
1.6378194 5.6743536 -1.6935159 16
1.7566619 6.0860925 -1.6582905 24
1.9099528 6.6171803 -1.6318986 16
2.5889406 8.9695873 -1.758945 10
2.8496768 9.7704649 -1.672111 53
3.4825273 11.94027 -1.7480142 9
3.6815019 12.622478 -1.537603 50
3.9699066 13.611309 -1.3227813 6
4.5600829 15.634801 -1.1388441 9
1.3883826 4.7602391 -1.6754923 19
1.5267363 5.234602 -1.7014607 20
1.6488106 5.6531487 -1.6885545 15
1.7433095 5.9771495 -1.6299263 31
1.8303367 6.2755327 -1.5488973 27
2.2195041 7.6098409 -1.6849164 24
2.6216772 8.98874 -1.7641294 10
2.8178043 9.5494633 -1.6357961 14
2.9768875 10.088592 -1.4782969 6
3.6092656 12.231705 -1.491375 12
4.0921154 13.86807 -1.3489767 3
7.1557236 24.250555 -1.7680476 6
7.4763837 25.337263 -1.2319454 19
1.4033316 4.7558532 -1.6754923 22
1.5377718 5.2114677 -1.6955032 18
1.6654756 5.6442523 -1.687452 15
1.7768645 6.0217462 -1.6436019 31
1.9282542 6.5348015 -1.6143761 25
2.2655482 7.6778827 -1.7015494 24
2.6626987 9.0238152 -1.7726463 10
2.8145814 9.4413185 -1.6186113 84
3.1402817 10.533858 -1.5448215 4
3.6002824 12.076899 -1.4737202 8
4.1075058 13.778345 -1.3413596 9
5.2216353 17.515615 -1.2780781 11
7.5208631 25.228216 -1.2276598 28
1.370056 4.5957584 -1.6204321 100
1.5545025 5.2144713 -1.6978861 18
1.6823312 5.6432638 -1.6885545 13
1.8063886 6.0594063 -1.6552514 20
1.959285 6.5722861 -1.6249819 18
2.2936893 7.6940227 -1.7065393 22
2.6935058 9.0351791 -1.7763494 11
2.8574331 9.4882259 -1.6280144 60
3.1965208 10.614181 -1.5579038 3
4.1735201 13.858348 -1.3502773 9
7.1581445 23.768917 -1.7358201 6
7.6045179 25.25112 -1.2298026 9
1.4511787 4.8186994 -1.7004614 19
1.5701557 5.2137675 -1.6990777 17
1.8138139 6.0228448 -1.6466409 20
1.961913 6.5146141 -1.6120704 18
2.3377261 7.762517 -1.7231722 21
2.7158866 9.0182142 -1.7744979 8
2.8694038 9.4206753 -1.6179628 79
3.2217746 10.57756 -1.5540069 3
3.923656 12.88194 -1.5747713 12
4.1915112 13.761349 -1.3421028 9
7.6618028 25.154827 -1.8387806 19
1.4635508 4.8050528 -1.6972601 19
1.5826349 5.1960235 -1.6949073 16
1.6564096 5.4382367 -1.6301194 32
1.7989036 5.906065 -1.6162508 27
1.9551536 6.4190574 -1.5899369 27
2.3529835 7.7251911 -1.7165191 27
2.7338994 8.9757938 -1.7678323 8
2.8620453 9.3032198 -1.5991569 55
3.9828308 12.946388 -1.263702 3
6.6478996 21.609325 -1.5809608 10
1.4780791 4.8045688 -1.6985407 19
1.5954561 5.1861091 -1.6931202 13
1.7105968 5.5603795 -1.6681575 20
1.8438365 5.9934816 -1.6415759 22
1.9993961 6.499136 -1.6111484 21
2.3998597 7.8008618 -1.7348154 21
2.7300608 8.874198 -1.7493172 10
2.8581438 9.1990747 -1.5826205 31
3.0457401 9.8028631 -1.4426684 6
3.7650812 12.118097 -1.4839414 11
4.1643085 13.40303 -1.3094049 9
7.6831789 24.728685 -1.8107386 19
1.6104953 5.1834574 -1.6937159 15
1.7283957 5.5629258 -1.6703625 15
1.8485069 5.9495096 -1.6309394 20
2.0487142 6.5938864 -1.6360487 22
2.4169853 7.7791848 -1.7314887 24
2.7145879 8.7370338 -1.7237661 21
2.9027307 9.2513132 -1.5929962 30
3.2865579 10.474611 -1.5428731 6
4.441977 14.157057 -1.3842757 9
7.6871085 24.499636 -1.7955316 25
1.5077243 4.8052788 -1.7017419 19
1.6215364 5.1680098 -1.6901414 12
1.7439255 5.5580769 -1.6703625 16
1.8587443 5.924017 -1.6253678 18
2.0618784 6.5714273 -1.6318986 26
2.4234748 7.7238736 -1.7206773 32
2.7354481 8.7181664 -1.7215443 14
2.9136503 9.1961374 -1.5848902 28
3.8069048 12.01545 -1.4739524 11
4.76899 15.052009 -1.4730804 7
7.7114997 24.339231 -1.7853472 18
7.9838219 25.198742 -1.2326908 29
1.5165581 4.7865996 -1.69662 21
1.6336542 5.1561813 -1.6877584 10
1.7501478 5.5238614 -1.6615421 15
1.8653445 5.8874483 -1.6167573 18
2.0878615 6.5897622 -1.6378932 26
2.7520647 8.6861362 -1.7167304 17
2.9654005 9.2583599 -1.5972114 24
4.2610669 13.303598 -1.3032739 6
7.7392354 24.162886 -1.7741863 18
8.0044394 24.990885 -1.2237467 28
1.6469319 5.1419325 -1.6847796 12
1.7522448 5.4707332 -1.6472089 14
1.835436 5.7304668 -1.575224 40
2.0800583 6.4942088 -1.6157595 28
2.4865689 7.7633867 -1.7327362 9
2.7643497 8.6306543 -1.7074727 17
3.1375899 9.7025919 -1.6753535 6
3.0761919 9.5127268 -1.4050918 6
4.4037824 13.61813 -1.6737317 14
4.4042048 13.619436 -1.3354145 12
7.820807 24.184837 -1.777395 18
1.547268 4.7847266 -1.6991808 22
1.6554116 5.1191468 -1.6788222 16
1.7432637 5.3908181 -1.6246066 27
1.8972723 5.8670702 -1.6142247 18
2.1089659 6.5217047 -1.6240596 21
2.498008 7.7247677 -1.7256671 9
2.7733247 8.5761499 -1.6982152 17
3.1076601 9.5191622 -1.4073185 6
3.8006449 11.641864 -1.4321382 11
7.6511641 23.436499 -1.7239615 18
1.5565064 4.7677794 -1.6946993 22
1.6228912 4.9711242 -1.631758 53
1.7756127 5.43893 -1.6405936 15
1.9178512 5.8746247 -1.6177703 13
2.0836828 6.3825884 -1.5908591 33
3.0386643 9.2096386 -1.5933205 7
3.1350703 9.5018282 -1.4062051 6
4.4353466 13.442728 -1.6553799 27
4.60849 13.967495 -1.3721998 13
5.0666981 15.356241 -1.1307524 9
1.5067672 4.5667372 -1.6249138 75
1.681573 5.0965419 -1.6746519 18
1.7981137 5.4497557 -1.6455551 14
1.9320552 5.8557081 -1.6142247 18
2.0860424 6.3224154 -1.5774866 23
2.5505471 7.7302442 -1.7302413 14
2.790298 8.4568853 -1.6778483 29
4.5197988 13.563314 -1.6718733 14
4.5315528 13.598587 -1.3372724 9
5.1198049 15.363853 -1.1324266 3
8.0649605 24.201874 -1.1896477 9
1.5586468 4.6772914 -1.6658889 21
1.6942723 5.0842853 -1.672269 16
1.8148824 5.4462209 -1.6461064 14
1.9524785 5.8591285 -1.6167573 18
2.0924861 6.2792721 -1.5682644 25
2.5567718 7.6725316 -1.719014 24
2.7345996 8.2061701 -1.6297088 72
3.4272561 10.195673 -1.5116984 3
3.9236128 11.672274 -1.4400364 2
4.7701764 14.190698 -1.3967233 13
5.1199584 15.231257 -1.1236373 6
1.5485479 4.6067429 -1.6422001 30
1.7008846 5.059926 -1.6657157 18
1.8279084 5.4378066 -1.6450039 14
1.9406849 5.773303 -1.5944711 23
2.0586898 6.1243534 -1.5309137 30
2.8243325 8.4020481 -1.670072 31
3.4650049 10.201732 -1.5142034 6
4.0318179 11.870553 -1.4660542 11
4.6130033 13.58169 -1.3382014 3
5.1203055 15.075299 -1.1133133 11
8.3147335 24.480392 -1.2056724 9
1.5374207 4.5265026 -1.6153102 33
1.7118616 5.0400949 -1.6609497 17
1.8456024 5.433857 -1.6455551 12
1.9364135 5.7012243 -1.5762371 25
2.1599119 6.3592525 -1.5913202 30
2.7837155 8.1958666 -1.6308198 100
2.7164423 7.9250598 -1.3764033 4
3.5686138 10.41122 -1.54677 6
4.1248507 12.034008 -1.4876583 12
5.7801852 16.863348 -1.2465482 10
8.2794113 24.154694 -1.1907656 9
1.6004326 4.6691675 -1.6678094 22
1.7197381 5.0172343 -1.6549922 21
1.8539115 5.4086771 -1.6394911 14
1.9824387 5.7836475 -1.6005491 19
2.2193081 6.4747005 -1.6217541 28
2.6241963 7.6559377 -1.7202615 16
2.7740889 8.0932398 -1.6119342 30
2.7282429 7.8875999 -1.3712153 4
4.1740284 12.067498 -1.4932334 12
4.7408633 13.706269 -1.3530641 6
5.8044329 16.781147 -1.2416652 7
8.5512505 24.722446 -1.219927 9
1.5936469 4.607379 -1.6473221 21
1.7168932 4.9636955 -1.638907 22
1.8633537 5.3871264 -1.6345296 14
1.9745504 5.7086058 -1.581302 23
2.6257439 7.5912657 -1.7073711 21
2.7581329 7.9740152 -1.589716 48
2.7503309 7.8757443 -1.370567 5
3.6539855 10.463415 -1.5576254 16
4.0906172 11.713738 -1.4509546 17
5.1582689 14.771026 -1.0940605 5
1.6166794 4.6294627 -1.6569254 19
1.7473483 5.0036411 -1.6538006 17
1.8869345 5.4033546 -1.641145 13
1.9761688 5.6588826 -1.5691459 21
2.2687545 6.4967198 -1.6305153 22
2.615361 7.4892492 -1.686164 68
2.7441957 7.8581758 -1.5682384 30
3.6308413 10.293125 -1.5339661 16
4.4611082 12.646861 -1.5682669 25
5.1948028 14.726823 -1.4569173 14
5.9758601 16.941053 -1.2561746 7
1.631847 4.6261473 -1.6575658 19
1.7624255 4.996326 -1.6532049 17
1.9083787 5.4100909 -1.6450039 14
2.0016623 5.6745415 -1.575224 21
2.0425012 5.7903166 -1.4548291 9
2.6499412 7.5123577 -1.6932329 58
2.7734482 7.8624892 -1.5708305 18
3.6015813 10.131201 -1.5111417 9
4.2311649 11.902211 -1.4772047 8
4.669806 13.136103 -1.300673 9
4.6753187 13.151609 -0.97603256 10
1.6361639 4.6025076 -1.6505231 21
1.7733489 4.9884071 -1.6520135 17
1.9241674 5.4126573 -1.6472089 13
2.032371 5.7170329 -1.5883931 23
2.2209132 6.2473998 -1.571031 20
2.5968635 7.3049426 -1.6479082 36
2.8209591 7.9353209 -1.5867536 48
2.8596382 7.964747 -1.3903456 4
3.7063434 10.323014 -1.5414814 6
4.2671967 11.885119 -1.4767401 11
5.0724087 14.127818 -1.400439 23
4.7199869 13.146244 -0.97673017 7
1.6518971 4.6009116 -1.6518036 18
1.7922387 4.9917951 -1.6549922 17
1.9138782 5.3305888 -1.6240554 14
2.0967431 5.8399096 -1.6243548 13
2.1050599 5.8630738 -1.4760406 14
2.6006308 7.2433519 -1.6358494 36
2.8126693 7.8339281 -1.5682384 28
3.6701455 10.127632 -1.5139251 3
4.3078485 11.88735 -1.4785985 8
5.0857992 14.034077 -1.3926361 57
7.1285892 19.67108 -1.4630723 9
9.5628023 26.388205 -1.3089013 10
1.665538 4.5959911 -1.6518036 19
1.8024852 4.9738917 -1.6508219 17
1.9185472 5.2941608 -1.6146837 12
2.0665948 5.7026925 -1.5878866 31
2.3439038 6.4679165 -1.6300541 16
2.648767 7.3091755 -1.6524823 25
2.7856731 7.6869626 -1.5404656 48
2.8343153 7.75352 -1.3563004 2
3.1918302 8.7315331 -1.3065572 6
5.0976262 13.945006 -1.3852047 13
5.4949965 15.032047 -1.1191728 9
1.6809692 4.5984397 -1.6543646 19
1.8137475 4.9616661 -1.6484389 20
1.9075829 5.2183614 -1.593184 18
2.0546136 5.6205769 -1.5666134 23
2.3559449 6.4448953 -1.6259041 21
2.5455849 6.9636722 -1.5759708 100
2.8051059 7.673615 -1.5393546 24
2.8736935 7.7853103 -1.3634337 5
4.4118862 11.952529 -1.7906013 7
4.3796902 11.865304 -1.479063 2
5.0296984 13.626283 -1.3551077 13
5.6216412 15.229955 -1.1352168 9
6.9139409 18.731009 -0.93110961 5
1.6947505 4.5913591 -1.6537243 18
1.8306472 4.9595261 -1.6496304 17
1.9346182 5.2412004 -1.6020044 15
1.9818122 5.3690567 -1.4982356 44
2.1686172 5.8751426 -1.4838796 10
2.6900623 7.2878227 -1.6512347 22
2.8257954 7.6555462 -1.5375032 22
2.9174554 7.8364396 -1.3738093 4
4.416914 11.864064 -1.779189 7
5.3609257 14.399729 -1.4335085 67
5.4852505 14.733672 -1.099362 11
6.9571567 18.68729 -0.9298985 16
1.7088866 4.5901599 -1.6550047 18
1.8411584 4.9454489 -1.6466517 16
1.946563 5.2285709 -1.5997993 15
1.9772204 5.3109183 -1.483547 16
2.4084046 6.4691024 -1.6355876 19
2.7144973 7.2912831 -1.6537298 48
2.8348181 7.6144714 -1.5308377 68
3.6345022 9.6848221 -1.4538022 6
4.5415435 12.101806 -1.5115854 33
5.2817726 14.074286 -1.4024825 20
6.2878966 16.755295 -1.2514311 7
1.7102499 4.5572858 -1.644761 19
1.8520907 4.9352474 -1.6448644 18
1.9102632 5.0902591 -1.5590049 33
1.9972401 5.3220258 -1.4881055 14
2.3795249 6.3406963 -1.6046927 25
2.6827185 7.1486135 -1.6229588 24
2.8036485 7.4708538 -1.5034353 30
3.0912006 8.1590815 -1.4334697 9
3.2396863 8.5510025 -1.2851245 6
4.4986024 11.873855 -1.4848706 11
5.3118491 14.020382 -1.3987669 13
6.0344319 15.927606 -1.191022 3
1.7272429 4.5589786 -1.6473221 22
1.8675852 4.9294052 -1.6448644 18
1.9909518 5.2550259 -1.611376 14
2.1489887 5.6721573 -1.5878866 46
2.4607966 6.4951596 -1.6457322 19
2.6926861 7.1072211 -1.615474 72
2.8431187 7.504281 -1.5119522 20
2.9709868 7.7761745 -1.3676488 6
4.2029619 11.00071 -1.6550466 6
4.9600849 12.982382 -1.2965858 3
6.1963744 16.21821 -1.2140417 10
1.8765727 4.9116869 -1.6406943 16
2.0131657 5.2692013 -1.6174401 14
2.2179902 5.8053026 -1.6268873 24
2.4691997 6.4628115 -1.6392765 19
2.6392102 6.9077916 -1.5718125 42
3.0969474 8.1058598 -1.6348932 36
2.9962399 7.7770538 -1.36927 5
3.2425373 8.4163446 -1.2675887 6
5.3907881 13.992354 -1.3989526 13
6.2638803 16.258556 -1.2183666 14
1.7642586 4.5793176 -1.658206 21
1.8628278 4.8351641 -1.6168643 20
2.0202708 5.243824 -1.611376 12
2.248106 5.8351941 -1.6370174 15
2.4375648 6.3269539 -1.6065371 21
2.6929541 6.9898434 -1.5921879 54
2.6652391 6.9179063 -1.3967874 3
3.0228755 7.777328 -1.3708912 8
3.2387931 8.3328466 -1.2564549 1
5.4236212 13.954025 -1.3967233 13
6.3272681 16.27895 -1.2212964 31
1.7606764 4.5299115 -1.6422001 21
1.8882314 4.858088 -1.6263962 15
1.9522419 5.0227761 -1.5452231 43
2.2366705 5.7545605 -1.6162508 24
2.0918248 5.3818984 -1.3681388 9
2.7547858 7.0875802 -1.6163056 18
2.6715114 6.8733301 -1.3893814 7
3.0364814 7.7402353 -1.3660276 5
3.4435062 8.7777748 -0.87968671 9
6.3740034 16.247849 -1.2204592 3
1.7755902 4.5261226 -1.6428404 19
1.8846576 4.8041439 -1.6103109 16
1.9841595 5.0577822 -1.5579025 33
2.2773478 5.8051429 -1.6324588 18
2.1165392 5.3952289 -1.3732111 7
2.767035 7.0533948 -1.6104841 19
2.7031393 6.8905196 -1.3945657 7
3.0384843 7.6821761 -1.3572731 5
3.3661242 8.5105448 -1.286238 12
6.5506997 16.562082 -1.245432 10
1.7951907 4.5387664 -1.6492428 18
1.8910431 4.7811089 -1.6043534 13
2.0286801 5.129096 -1.5816072 24
2.309916 5.8401423 -1.6441083 15
2.4880552 6.2905302 -1.6028481 21
2.7716098 7.0074387 -1.6017518 25
2.7230921 6.8847723 -1.394936 7
2.7772765 6.9683738 -1.2324402 6
3.4301879 8.6065722 -1.3021038 3
5.5110483 13.827591 -1.3887346 39
6.0998697 15.304984 -1.1520979 9
1.8007528 4.5182099 -1.6434807 18
1.8858815 4.7318039 -1.5894598 16
2.0648773 5.1809163 -1.5992479 13
2.3230479 5.8286834 -1.642589 15
2.5405402 6.3743863 -1.6259041 15
2.7385204 6.8711319 -1.5722283 79
3.4150898 8.4867449 -1.2856812 4
4.5435967 11.291166 -1.4233108 11
4.5726213 11.363296 -1.1427567 10
6.1565528 15.299479 -1.1532141 6
9.5993528 23.855085 -1.1991507 9
1.8192636 4.5210013 -1.6466817 18
1.8944365 4.7078118 -1.5835023 12
2.06267 5.1258845 -1.5843636 18
2.3373091 5.8083825 -1.6390433 18
2.5565805 6.3532877 -1.6226763 25
2.799999 6.9582005 -1.594267 22
2.7565627 6.8502579 -1.391233 9
3.4231598 8.4429016 -1.2803926 7
4.5574708 11.240573 -1.4184325 11
4.7916603 11.818179 -1.18976 8
6.91925 17.06568 -1.2877045 15
9.5386705 23.526234 -1.1838714 9
1.8261111 4.5039315 -1.6422001 21
1.9081912 4.7063742 -1.5846937 15
2.0681381 5.1008682 -1.5782996 15
2.3386967 5.7681756 -1.6294198 15
2.4949648 6.1535959 -1.5733366 14
2.7674892 6.8257518 -1.5655751 42
2.7789202 6.8539457 -1.3934548 15
3.4841747 8.5207014 -1.2937533 4
5.6776309 13.884894 -1.39951 13
6.8044786 16.64065 -1.2571512 7
9.6696768 23.647617 -1.1914179 9
1.8244058 4.4616642 -1.6287552 22
1.9170877 4.6883216 -1.5805235 18
2.0752585 5.0751352 -1.5722356 13
2.3660522 5.786284 -1.6365108 18
2.5308888 6.1893988 -1.5844034 15
2.763294 6.7577558 -1.5518529 48
2.7999868 6.8474898 -1.3938251 11
3.1080709 7.5370054 -1.3394397 8
3.4732015 8.4224396 -1.2803926 3
5.2973371 12.845928 -1.6249484 23
5.7802997 14.017103 -1.4145585 13
7.0462608 17.08703 -1.292448 15
1.8361925 4.4527273 -1.6274747 21
1.9579217 4.7479186 -1.6025661 13
2.0756505 5.0334082 -1.56121 15
2.3057628 5.5914254 -1.583328 21
2.52847 6.1314855 -1.5714921 17
2.7922843 6.7712293 -1.5568429 22
2.8435211 6.8954778 -1.4053044 7
2.8688452 6.9055405 -1.2285494 6
3.9215047 9.4393768 -1.4365449 3
5.4330692 13.077833 -1.6560767 13
5.9988022 14.439598 -1.458775 14
9.480648 22.820679 -1.7280074 12
1.8303965 4.405911 -1.6121092 18
1.9622871 4.7233825 -1.5960129 15
2.1249611 5.1149516 -1.5882225 13
2.3448877 5.6443329 -1.6000426 17
2.5885637 6.2308803 -1.5986981 18
2.7964907 6.7313776 -1.549358 25
2.8699265 6.8473506 -1.2197949 1
3.7635725 8.9794979 -1.36835 6
5.3919635 12.864673 -1.6312205 10
9.367198 22.349174 -1.6945243 11
9.6300898 22.976406 -1.1617907 8
1.8500874 4.4141188 -1.6172309 18
1.9815435 4.7277598 -1.5995876 16
2.0979161 5.0054131 -1.5562487 16
2.4314137 5.8011041 -1.6466409 18
2.6133904 6.2352815 -1.601926 18
2.8115733 6.7081256 -1.5460315 21
2.8489983 6.7974181 -1.3886409 12
2.8706045 6.7956777 -1.212013 5
2.8961914 6.8562498 -1.0460252 4
5.3652539 12.701344 -1.6124041 13
5.4536228 12.910542 -1.307547 9
6.793077 16.081476 -1.2207383 10
9.6856594 22.929184 -1.1607659 8
1.8616687 4.4071903 -1.6165907 18
1.9598199 4.6395469 -1.5715872 15
2.1148772 5.006619 -1.5584537 18
2.4536262 5.8085504 -1.6506928 18
2.6171601 6.1956902 -1.5936258 21
2.8394287 6.7218738 -1.5510213 24
2.8679681 6.7894363 -1.3886409 3
2.9050906 6.8174915 -1.2175251 5
2.9076221 6.8234324 -1.0424066 5
5.3809872 12.627776 -1.6052028 13
9.5895901 22.504272 -1.7105683 6
9.6863718 22.731394 -1.1522878 8
1.8688192 4.3856325 -1.6108286 19
1.9871087 4.6632271 -1.581715 16
2.0672872 4.8513851 -1.5121466 33
2.4703441 5.7972546 -1.6496799 15
2.6266925 6.1641636 -1.5876312 15
2.8444259 6.675127 -1.542289 66
2.900069 6.805707 -1.3938251 7
2.9404728 6.8474331 -1.2243342 11
2.9313564 6.8262038 -1.0440767 5
5.3637171 12.490404 -1.5896386 13
6.2861471 14.638453 -1.1140109 5
9.7482424 22.700581 -1.1521014 8
1.8750793 4.366468 -1.6057068 19
1.9210236 4.4734578 -1.5191613 52
2.0846212 4.854425 -1.5149029 37
2.174278 5.0632076 -1.4425201 16
2.6293077 6.122828 -1.5788701 21
2.7395499 6.3795471 -1.4757574 82
2.923718 6.8084164 -1.3960469 7
3.0285549 6.9985833 -1.2528675 11
3.6331451 8.39571 -1.2856812 6
4.8179293 11.133587 -1.4186647 11
5.7970104 13.396112 -1.3617959 16
6.3151126 14.593376 -1.1119182 8
7.5019093 17.335903 -0.88089269 15
1.8872647 4.3612151 -1.6057068 18
1.9281999 4.4558105 -1.514991 48
2.1157296 4.8891664 -1.5275823 41
2.2821529 5.2737484 -1.5043136 18
2.6463947 6.1154623 -1.5788701 24
2.8653474 6.6214328 -1.5335568 54
3.0836866 7.0650015 -1.2664856 8
3.4661906 7.9413519 -1.2177646 6
4.787725 10.969105 -1.399616 11
6.2309976 14.275771 -1.4532015 10
6.3776922 14.611861 -1.1148479 3
10.381474 23.784885 -1.2102375 18
1.9017156 4.3570004 -1.606347 18
2.0193274 4.6264596 -1.5751617 14
2.0764763 4.7573929 -1.4884417 20
2.5007191 5.7293701 -1.6365108 22
2.6936216 6.1713276 -1.5954703 18
2.8642249 6.5621948 -1.5219136 20
3.2109435 7.3565583 -1.5123224 26
3.4314077 7.8095603 -1.1988372 6
4.8288956 10.990109 -1.4037974 11
4.9040642 11.161187 -1.1373689 7
10.489386 23.872852 -1.2160139 19
2.0452178 4.6547222 -1.586481 14
2.1112952 4.8051085 -1.50498 18
2.5147102 5.7232432 -1.6365108 20
2.9605191 6.7378621 -1.5643277 42
3.0130682 6.8574586 -1.4112294 9
3.0175552 6.8094983 -1.2236857 8
2.9817104 6.7286091 -1.0343345 1
5.664176 12.781935 -1.6349373 6
7.2626624 16.389124 -1.2535238 10
10.293998 23.229717 -1.1848961 18
1.9708797 4.4475412 -1.5179697 72
2.1731155 4.9039121 -1.5380566 74
2.4856474 5.60918 -1.6061207 29
2.63501 5.9462361 -1.5410583 27
2.807307 6.3350458 -1.4728465 72
3.061672 6.9090528 -1.4238198 15
3.0075924 6.7361703 -1.212013 22
2.9859533 6.6877046 -1.0293243 5
5.4236813 12.147537 -1.5557226 12
5.5717993 12.47928 -1.2750348 9
5.9500208 13.32639 -1.0205373 7
10.328687 23.133385 -1.1814489 18
2.0517879 4.5954337 -1.5703958 19
2.1907196 4.9066024 -1.5408128 39
2.510766 5.6234174 -1.6121987 22
2.5778158 5.7735901 -1.4981742 20
2.8074396 6.2878838 -1.4636985 24
3.0649269 6.8645835 -1.4164137 20
2.998759 6.6601062 -1.2000161 31
3.0963912 6.8769426 -1.0599424 4
5.5025926 12.221006 -1.5673376 9
5.6027985 12.443558 -1.2731769 12
5.991035 13.305814 -1.0203977 7
10.407868 23.115398 -1.1821942 9
2.0818906 4.6237831 -1.5823108 13
2.1911254 4.8663888 -1.5303386 23
2.5363626 5.6331449 -1.6172637 18
2.5631814 5.692708 -1.4792684 9
2.8520765 6.3343315 -1.476589 38
3.0267637 6.7223029 -1.3890111 16
2.9676158 6.5420713 -1.1802374 28
3.8806975 8.5549479 -1.0985533 10
3.9198642 8.6412907 -0.88526022 9
7.3913937 16.294233 -1.2511522 14
11.589033 25.547876 -1.3082491 10
2.0411639 4.4997201 -1.5417998 30
2.3000121 5.0703478 -1.5964917 19
2.5392969 5.5978475 -1.6091596 15
2.6425822 5.8255386 -1.5156968 21
2.9061234 6.4065118 -1.495301 49
3.0000584 6.6135907 -1.3682741 10
3.0047388 6.5750442 -1.187695 18
3.8921859 8.5169773 -1.0950688 10
3.9456336 8.6339331 -0.8856318 7
7.4227667 16.242682 -1.2487804 10
7.6910653 16.829781 -0.86291146 4
2.1100633 4.6172929 -1.584098 11
2.3381341 5.116363 -1.6130298 16
2.5492887 5.5784168 -1.6056142 15
2.757524 6.0340824 -1.5719532 11
2.8931024 6.3307581 -1.4794997 19
2.9784851 6.5175948 -1.3501291 10
3.0270309 6.5691576 -1.1883435 23
3.5218108 7.6429119 -1.1826931 6
4.0228391 8.7302256 -1.1241065 5
6.9969907 15.184627 -1.1691184 6
7.8860321 17.113995 -0.87874985 5
2.1229596 4.6071734 -1.5829065 10
2.358218 5.117723 -1.6157863 14
2.5449381 5.5229363 -1.5919386 19
2.4661598 5.351975 -1.3962671 14
2.7058415 5.8721237 -1.3742963 90
2.9413679 6.3832545 -1.3242079 14
3.1858881 6.8696856 -1.244113 11
4.1294079 8.9041843 -1.1478013 10
5.9408417 12.810153 -1.3173935 12
6.9862323 15.064315 -1.1611662 9
7.8118401 16.844561 -0.86589283 4
2.136622 4.6071682 -1.5846937 9
2.3852768 5.1433387 -1.6257092 11
2.5185406 5.4306936 -1.56712 21
2.4972446 5.3847733 -1.4064116 12
2.9119544 6.2790065 -1.4711832 17
2.9238827 6.3047271 -1.3093958 17
3.1531177 6.7434392 -1.2230372 18
6.0614481 12.963362 -1.6734993 14
7.0657587 15.111238 -1.5563117 15
10.967785 23.456335 -1.2075357 28
2.1462324 4.5900559 -1.5811192 11
2.405494 5.1445279 -1.6284657 11
2.5331297 5.4174972 -1.5656004 19
2.6460376 5.658968 -1.4801905 19
2.8786335 6.1564112 -1.4445705 13
2.8970547 6.1958079 -1.2886587 21
3.2121551 6.8138318 -1.2376281 16
4.1313996 8.763792 -1.3616697 13
5.947978 12.617236 -1.6312205 13
7.0469618 14.948472 -1.5418205 15
7.6822166 16.296015 -1.259802 15
11.07464 23.492245 -1.2111692 9
2.1435447 4.5470257 -1.5686085 14
2.3732758 5.0343466 -1.5959405 20
2.5674613 5.4462652 -1.5762371 14
2.6538434 5.6295047 -1.4746572 14
2.897959 6.1473384 -1.4445705 17
2.9148276 6.1831212 -1.2879181 21
2.9843323 6.2906551 -1.1439224 5
3.1578968 6.6565108 -1.035448 33
3.9617386 8.3509245 -1.0808985 5
7.1696777 15.11292 -1.5605847 16
7.4381065 15.678739 -1.2134836 14
11.192815 23.593266 -1.217784 9
2.3690908 4.9937916 -1.5849149 22
2.5459325 5.3665552 -1.5549639 19
2.6075344 5.4964056 -1.4414567 20
2.953517 6.2256999 -1.2982867 14
3.1352096 6.5554314 -1.1938555 13
3.127521 6.5393553 -1.0187472 27
5.727807 11.976311 -1.5524703 12
5.9695878 12.481853 -1.2908264 6
7.8953476 16.508436 -1.2796128 23
8.3732252 17.507635 -0.90502292 10
2.1334865 4.4609213 -1.5429913 22
2.4212639 5.0626373 -1.609171 13
2.4993353 5.2258773 -1.5164697 30
2.585324 5.4056716 -1.4197841 21
2.6672142 5.5768967 -1.314002 26
3.0247872 6.3245482 -1.3208752 17
3.1372325 6.5128665 -1.187695 11
3.1363177 6.5109673 -1.0156853 5
5.7241635 11.883312 -1.5424814 9
6.2636824 13.003349 -1.3465616 6
7.5310163 15.634323 -1.2134836 3
10.437008 21.667135 -1.1215427 8
2.1774211 4.5203071 -1.5656297 19
2.3961804 4.9744492 -1.5832611 16
2.5752151 5.3461232 -1.5534444 17
2.6097012 5.417716 -1.4248564 19
2.9196448 6.0611563 -1.4300168 19
3.0279388 6.285974 -1.31458 15
3.0813239 6.3513784 -1.1598103 17
3.1363325 6.4647651 -1.0098401 6
3.1509206 6.4948349 -0.84418333 7
5.8410301 12.039823 -1.2484677 2
8.513607 17.548672 -0.9095881 5
2.1883686 4.5107741 -1.5644382 15
2.4285228 5.0057921 -1.595389 14
2.5901332 5.338912 -1.5534444 17
2.6596467 5.4821963 -1.4437622 20
2.9254575 6.0300989 -1.424611 20
3.0712161 6.330544 -1.3256891 12
3.0680866 6.2766056 -1.1478133 8
5.86798 12.00455 -1.2466099 8
8.2246151 16.825687 -1.309608 16
8.1330976 16.638464 -0.86365682 14
2.2059338 4.5128379 -1.5674169 15
2.452651 5.0175648 -1.6014532 15
2.6552434 5.4320226 -1.5828216 17
2.7229056 5.5704441 -1.4691237 16
2.9897277 6.1163015 -1.4470656 38
3.0261137 6.1907387 -1.2982867 21
4.06249 8.2451773 -1.2918048 16
4.7445369 9.6294508 -1.2553568 10
5.9989562 12.175404 -1.2663029 6
8.0093651 16.255703 -1.2671961 30
11.556585 23.455097 -1.2193679 9
2.229382 4.524725 -1.5739703 14
2.4870944 5.0477748 -1.6135812 18
2.5773745 5.2310061 -1.5265998 82
2.7223284 5.5252028 -1.4594404 19
2.9821229 6.0524783 -1.434175 38
4.4244189 8.9168434 -1.3989681 8
10.935628 22.039343 -1.14735 17
2.2513444 4.5372934 -1.5805235 19
2.4789648 4.9960327 -1.5992479 20
2.5670342 5.1735249 -1.5119112 24
2.8060844 5.6552997 -1.4958687 20
2.98945 6.0248494 -1.429601 33
2.8583779 5.7606907 -1.2116354 9
4.3603716 8.7264795 -1.6027236 16
2.892134 5.7880731 -0.90935713 5
6.0306582 12.069251 -1.5777912 12
6.4460425 12.900566 -1.3454469 3
7.2216282 14.452757 -1.1297759 3
11.209657 22.434063 -1.1695236 8
2.2358441 4.4746299 -1.5608637 36
2.4843125 4.9718938 -1.5937352 14
2.5754166 5.1542215 -1.5083656 14
2.7470558 5.497726 -1.4562125 21
2.9310615 5.8659792 -1.3938402 44
2.873574 5.7509284 -1.2112651 6
4.3720489 8.685297 -1.5975356 24
2.910187 5.7812343 -0.90963542 5
2.9144306 5.7896643 -0.75799954 10
4.7830853 9.5018425 -0.99245757 7
7.3613663 14.623728 -1.1448432 12
8.6603708 17.204266 -0.89822173 10
2.5007839 4.9679341 -1.5948378 11
2.5585117 5.0826135 -1.4896251 16
2.7353566 5.4339247 -1.4414567 15
2.8789661 5.7192121 -1.36099 60
2.9277422 5.8161087 -1.2268178 22
4.3695159 8.6202459 -1.5878085 7
2.956764 5.833148 -0.91909921 18
2.9350767 5.7903628 -0.759161 10
4.876224 9.6198883 -1.0062056 5
8.2040892 16.185148 -1.2688702 15
8.6776657 17.119429 -0.89505404 15
2.2520843 4.4429455 -1.5543106 19
2.481616 4.8957691 -1.5738894 15
2.5945635 5.1185937 -1.5022875 18
2.768117 5.4609823 -1.4506791 15
2.8285882 5.5802813 -1.3298033 17
2.8275633 5.578259 -1.178308 33
2.9852197 5.8436852 -1.0781015 38
4.7761602 9.3495216 -1.4755133 6
2.9387956 5.7528081 -0.75544417 5
4.9037066 9.5991983 -1.0056481 5
8.2751627 16.198957 -0.8482843 9
2.2477927 4.4001427 -1.5417998 18
2.4759951 4.846858 -1.5606588 13
2.6616836 5.2103505 -1.5316647 17
2.8304129 5.5406451 -1.4741961 19
2.8461068 5.5713663 -1.3298033 35
2.9344871 5.7443738 -1.2153383 9
2.9609039 5.7563529 -1.0635107 12
4.4978614 8.7443838 -1.381989 6
4.8865848 9.5001078 -1.2493169 2
6.1628871 11.981393 -1.2570138 9
8.3775606 16.286983 -1.2807288 15
8.3139677 16.163353 -0.84763211 4
2.2714236 4.4159203 -1.5495445 22
2.4736912 4.8091526 -1.5507358 15
2.6417074 5.1357965 -1.5119112 20
2.8556652 5.5517564 -1.4792684 21
2.9171321 5.6712556 -1.3555844 35
3.0089512 5.8497624 -1.2394081 17
3.1049423 5.9951582 -1.1092287 28
5.8639169 11.322307 -1.7919929 7
4.8528028 9.3700037 -1.2339851 7
6.1981564 11.967671 -1.2573853 6
7.0852418 13.680494 -1.077319 8
8.9305592 17.243513 -0.90558189 15
2.4782712 4.7851543 -1.5452231 16
2.5999835 5.0201616 -1.4800014 20
2.8881643 5.5765939 -1.4880297 15
2.9680471 5.730835 -1.3718015 35
2.9493511 5.694736 -1.2083027 6
3.2276857 6.1871433 -1.1465164 8
4.5417356 8.7060423 -1.3800405 6
4.8860898 9.3661337 -1.2353789 10
7.2338853 13.866618 -1.4591467 10
8.6031818 16.491419 -1.3006793 11
8.8985071 17.057528 -0.89719683 15
2.2535486 4.3198223 -1.5203527 18
2.4817846 4.7573271 -1.5386078 15
2.581753 4.9489565 -1.4612609 18
