# .PCD v0.7 - Point Cloud Data file format
VERSION 0.7
FIELDS x y z intensity
SIZE 4 4 4 4
TYPE F F F F
COUNT 1 1 1 1
WIDTH 1412
HEIGHT 1
VIEWPOINT 0 0 0 1 0 0 0
POINTS 1412
DATA ascii
6.6845751 1.907934 -1.6471156 13
7.6074486 2.1713436 -1.6815898 34
8.1418762 2.3238819 -1.5952705 24
9.6790981 2.7316158 -1.6523324 29
14.483702 4.0875616 -1.7599155 14
16.242279 4.5838637 -1.5745184 4
23.661724 6.6777649 -1.7192181 18
53.679253 15.149253 0 54
4.7630553 1.34422 -1.6722912 11
4.9721084 1.4032186 -1.6120982 32
5.5007973 1.5524241 -1.6389397 9
5.8562021 1.6527258 -1.5929517 10
6.6902051 1.8880965 -1.6471156 13
7.6496286 2.1588631 -1.6894906 29
9.8335333 2.7437229 -1.677299 21
14.384792 4.0136013 -1.746442 29
15.860682 4.4253998 -1.5362469 3
23.637234 6.59519 -1.7160093 18
34.070221 9.5061703 -1.6495192 20
4.7359967 1.3214235 -1.6614071 10
5.0700383 1.4146268 -1.6424814 17
5.479455 1.5288609 -1.6312219 11
6.0847149 1.6977388 -1.6537319 11
6.6939034 1.8677129 -1.6466544 13
7.7294898 2.1566591 -1.7057077 16
8.3580856 2.3320477 -1.6348932 44
9.8887196 2.7293761 -1.6854051 27
10.672151 2.9456103 -1.5559554 3
14.560625 4.0188646 -1.76642 15
16.400864 4.5267873 -1.5873376 4
23.640177 6.5249033 -1.7148932 18
34.017681 9.3891878 -1.6456995 20
51.650284 14.255947 -1.2440058 29
53.559345 14.782865 0 54
4.767066 1.3157535 -1.6710106 9
5.1236601 1.4141766 -1.6585667 12
5.5318871 1.5268511 -1.6455551 10
6.0950279 1.682283 -1.6552514 11
6.7047219 1.850564 -1.6480378 13
7.7486835 2.1387069 -1.7086184 13
8.3172016 2.2956231 -1.6256355 26
9.8777323 2.6948309 -1.6821626 22
14.580149 3.9777384 -1.7673491 15
16.358509 4.4629087 -1.5819498 4
23.669054 6.4573622 -1.7155907 18
34.05695 9.2913752 -1.6462584 20
51.321991 14.001603 -1.2350929 28
4.7709489 1.3016044 -1.6710106 11
4.7023554 1.2828908 -1.5209486 40
6.0962591 1.6631739 -1.6542385 13
6.7045503 1.8291271 -1.6466544 13
7.7549944 2.1157081 -1.7086184 13
8.2064161 2.2388642 -1.6026766 56
9.9176111 2.6759782 -1.6876748 34
10.608627 2.8624289 -1.5442649 3
14.549006 3.9256251 -1.7622385 14
23.321007 6.2924943 -1.6890832 17
31.461454 8.4889565 -1.5196447 16
4.6446819 1.253232 -1.625554 15
4.9363303 1.3319249 -1.5954173 10
4.6477838 1.254069 -1.380392 2
6.0840673 1.6416082 -1.6496799 13
6.6795688 1.8022869 -1.6392765 13
7.7570944 2.0930257 -1.7077868 14
8.0930891 2.1836843 -1.5793475 24
9.879282 2.6360586 -1.6798929 19
10.639544 2.8389168 -1.547605 6
14.076245 3.7559216 -1.7036985 17
16.514013 4.406384 -1.594583 12
23.326925 6.2242522 -1.6882463 17
31.506275 8.406723 -1.5206695 16
51.814747 13.82557 -1.2450736 29
4.6609788 1.2436746 -1.6300356 15
5.035954 1.3437282 -1.6263962 17
5.4277182 1.4482614 -1.6108248 9
6.0755429 1.6211185 -1.6461345 13
6.6695337 1.7796112 -1.6355876 16
7.7610197 2.0708492 -1.7073711 14
8.133337 2.1701934 -1.5860128 26
9.9275913 2.6155698 -1.6867019 27
11.9718 3.1541464 -1.7399423 11
14.548995 3.8331466 -1.7594509 14
17.542589 4.6218529 -1.6924913 18
23.315495 6.1428099 -1.6860141 11
31.526733 8.306181 -1.52039 16
4.743649 1.249784 -1.6575658 12
4.633985 1.2208915 -1.4953314 7
6.0955729 1.6059682 -1.6501864 13
6.6901464 1.7626173 -1.6392765 16
7.7618117 2.0449634 -1.7061235 14
8.1002035 2.1341176 -1.5782365 22
9.8512735 2.5642257 -1.6724354 26
11.862272 3.0876763 -1.7226847 15
14.658348 3.8154776 -1.7712983 15
15.665705 4.0776863 -1.5102372 3
24.061527 6.2630672 -1.7386104 18
4.717998 1.2280658 -1.6473221 12
4.9461436 1.2874507 -1.5948215 40
5.3080873 1.3816624 -1.5727868 10
6.1209078 1.5932345 -1.6557579 11
6.7631483 1.7604058 -1.6558768 13
7.7773118 2.0243864 -1.7082026 13
8.0969896 2.1075964 -1.5763849 22
10.010848 2.5777986 -1.6983747 32
11.701533 3.0131509 -1.6981903 15
14.620193 3.7647073 -1.7654908 15
15.624256 4.0232539 -1.505221 10
20.607786 5.3065157 -1.4880451 9
49.565498 12.763141 -2.3868418 23
50.756153 13.069736 -1.2168492 26
4.7487202 1.2227979 -1.6569254 10
5.0474887 1.2997309 -1.6263962 12
5.3880191 1.3874178 -1.595389 12
6.1231847 1.5767232 -1.6552514 13
6.7922339 1.7490038 -1.6618713 13
7.7731118 2.0015805 -1.7061235 14
8.0625105 2.0761006 -1.5686086 26
10.062889 2.5575187 -1.7058321 29
11.67639 2.9675958 -1.6931801 14
14.651199 3.723654 -1.7678137 15
17.553303 4.4612336 -1.6897044 18
23.963776 6.0904784 -1.728984 12
49.349758 12.542415 -2.3745439 23
50.89579 12.935345 -1.2192167 27
4.7433562 1.2055408 -1.6537243 13
5.1662703 1.3130258 -1.6633326 11
5.3761578 1.3663695 -1.4521438 11
6.8052397 1.7295756 -1.6637158 13
7.7869449 1.9790796 -1.7077868 16
8.0518484 2.0464056 -1.5652759 24
10.066163 2.5284481 -1.7051837 21
11.753782 2.9523492 -1.7032006 19
14.657686 3.6817603 -1.7673491 15
17.548309 4.4078355 -1.6880324 18
23.702047 5.9535489 -1.7088941 12
49.254765 12.371955 -2.3683016 23
51.490208 12.93346 -1.2325861 28
4.8220482 1.2112161 -1.6799738 11
5.1736197 1.2995249 -1.6645242 10
5.4036155 1.3572959 -1.5975943 10
5.3180275 1.3357975 -1.4354292 7
6.8062673 1.709618 -1.6627935 13
7.7829547 1.9549452 -1.7057077 16
8.0327501 2.0176895 -1.560462 18
10.131086 2.51282 -1.7149109 16
11.872062 2.9446352 -1.7190663 49
14.662765 3.6368151 -1.7666522 15
15.787013 3.915663 -1.5174828 3
23.618914 5.8582144 -1.7016394 17
51.644798 12.809493 -1.2353715 28
55.247959 13.703187 0 57
4.812748 1.193709 -1.6754923 13
5.1718941 1.2827883 -1.6627369 10
5.4729285 1.3574539 -1.6168888 11
5.2074161 1.2915988 -1.4045326 3
6.7848663 1.6828548 -1.656338 13
8.0253487 1.9905325 -1.5578699 22
10.13083 2.4808738 -1.713614 17
11.84612 2.9009199 -1.7140561 31
14.683136 3.5956588 -1.7678137 15
15.788888 3.8664391 -1.5165538 11
23.694324 5.802351 -1.7058247 11
4.7628975 1.1663553 -1.6569254 13
5.1460066 1.2601725 -1.6532049 10
5.518014 1.3512709 -1.6290169 12
6.7312307 1.6483678 -1.6420432 13
7.7773175 1.9045372 -1.7019653 22
8.0369453 1.9681159 -1.5589807 22
10.103189 2.444222 -1.7077776 26
11.859948 2.8692272 -1.7148911 42
14.689257 3.55371 -1.7673491 15
20.485567 4.955987 -1.4738147 14
51.690506 12.505265 -1.2347215 28
4.8324342 1.1690904 -1.6799738 11
5.1235256 1.2395129 -1.6448644 10
5.6021156 1.3552961 -1.6527216 9
6.0234051 1.4572169 -1.6223288 18
6.7093253 1.6231588 -1.6355876 13
7.7540827 1.8759124 -1.6957278 22
8.0462313 1.9465908 -1.5597215 26
9.8753853 2.3617623 -1.6682203 30
11.921352 2.8510685 -1.7226847 38
14.625095 3.4976861 -1.7585217 18
16.406092 3.9236228 -1.5737754 12
20.546982 4.9139438 -1.4773027 14
51.57333 12.334096 -1.2311471 28
4.8483777 1.1595209 -1.6844555 11
5.1044707 1.2207671 -1.6377155 11
5.614994 1.3428621 -1.6554781 8
5.9989734 1.4346932 -1.6147312 20
6.7059808 1.6037787 -1.6337432 13
7.7951179 1.8642528 -1.7036285 19
8.0474758 1.9246058 -1.5589807 24
9.9538279 2.3474844 -1.6802171 55
11.288343 2.6622131 -1.6299956 21
16.4571 3.8811991 -1.5774909 4
24.073196 5.6773591 -1.729542 12
51.660477 12.183471 -1.2323077 28
4.8427763 1.1421076 -1.6812544 11
5.1417298 1.2126119 -1.6484389 11
5.6154428 1.3243312 -1.6543756 11
6.0467634 1.4260528 -1.6263808 20
6.7071981 1.581808 -1.6328208 13
7.7914157 1.8375069 -1.7015494 22
8.0439196 1.8970568 -1.5571293 24
10.123312 2.3594923 -1.7077776 27
10.880574 2.5359912 -1.5701511 3
14.575354 3.3971524 -1.7501588 14
24.130726 5.6242719 -1.7326113 24
52.085548 12.139846 -1.2416848 29
55.231636 12.87312 0 56
4.8420591 1.1285635 -1.6799738 11
4.9682465 1.1579746 -1.5918428 17
5.62638 1.3113692 -1.6565806 11
6.0391703 1.4075804 -1.6233418 15
6.7113166 1.5642409 -1.6328208 13
7.7942953 1.8166564 -1.7011336 17
8.0469437 1.8755424 -1.5567589 24
10.192634 2.3400426 -1.7181534 21
11.93409 2.7398491 -1.431906 8
17.95878 4.1230078 -1.7190583 19
24.258139 5.5692258 -1.740424 24
51.870232 11.908458 -1.2356036 28
4.7977605 1.1014782 -1.6633278 12
5.0632381 1.1624271 -1.6210345 16
5.6119604 1.2884036 -1.6510679 11
6.0702052 1.3936083 -1.6304327 15
6.7259512 1.5441556 -1.6351265 13
7.8079033 1.792552 -1.7027969 19
8.0339642 1.8444515 -1.5530559 22
10.162559 2.3032837 -1.7119927 26
11.967872 2.7124474 -1.7246331 35
14.564836 3.3010337 -1.746442 10
17.977989 4.0746045 -1.7198013 23
24.409801 5.5323367 -1.75019 18
4.8100572 1.090171 -1.6665291 13
5.085084 1.1525042 -1.626992 13
5.5836616 1.2655039 -1.6416962 13
6.0929427 1.3809295 -1.6354978 15
6.570806 1.4892343 -1.5963925 27
7.8243256 1.7733371 -1.7052919 21
8.046751 1.8237485 -1.5545372 24
10.091912 2.257663 -1.6990231 47
11.98313 2.6807475 -1.7257466 22
12.404762 2.7750709 -1.4864967 6
18.086464 4.0461249 -1.7290906 19
24.454357 5.4706874 -1.7522826 24
51.47739 11.516014 -1.2246945 27
55.209358 12.350893 0 56
4.8371201 1.0821128 -1.6748521 13
5.0249348 1.1241288 -1.6067364 10
5.6040587 1.2536846 -1.6466577 14
6.1043272 1.3655999 -1.6375238 20
6.8332272 1.5286621 -1.6591047 13
7.8216105 1.7497735 -1.7036285 19
8.065238 1.8042754 -1.5571293 22
10.235005 2.2596779 -1.7220442 16
12.006042 2.6506863 -1.7279733 29
12.094344 2.6701818 -1.4483993 11
18.175472 4.0127692 -1.736522 19
24.490973 5.4071016 -1.7538173 18
49.151638 10.851668 -2.3473392 22
51.571827 11.385996 -1.22618 27
4.8401232 1.0685993 -1.6748521 13
5.0504265 1.1150301 -1.6138854 11
5.5080404 1.2160617 -1.6174401 16
6.8735757 1.5175438 -1.6678659 13
7.7997227 1.7220179 -1.6978071 17
8.0894365 1.7859807 -1.5608323 22
10.125961 2.2041121 -1.7025899 29
10.461806 2.277215 -1.5047396 3
11.88288 2.5865395 -1.4221492 11
18.169788 3.9550068 -1.7348499 19
23.602348 5.1375089 -1.6890832 17
49.339798 10.739763 -2.3547926 22
4.8414211 1.0538292 -1.6742117 13
5.0686378 1.1032873 -1.6186515 20
5.5398026 1.2058455 -1.6257092 12
5.9835358 1.3024327 -1.6030817 17
6.9198837 1.5062469 -1.6780105 14
7.7990642 1.6976175 -1.6965597 19
8.0908604 1.7611326 -1.5600917 26
10.037529 2.1555243 -1.6867019 37
12.330934 2.6480248 -1.4748816 8
18.065891 3.8795869 -1.7238886 28
24.391014 5.237885 -1.7444699 24
49.420376 10.612853 -2.3572147 22
4.8461976 1.040704 -1.6748521 13
4.9951653 1.0726943 -1.5942258 40
5.5111938 1.1835096 -1.6163375 13
5.2229128 1.1216023 -1.3984545 3
6.9259653 1.4873269 -1.6784716 14
7.8056865 1.6762438 -1.6969755 17
8.0861378 1.7364697 -1.5582402 24
9.9145174 2.0983558 -1.6649778 37
12.102345 2.561398 -1.7385505 38
15.020647 3.1790411 -1.7954576 15
18.145508 3.8404016 -1.730391 23
23.924332 5.0634594 -1.7100103 18
4.8511176 1.0267136 -1.6754923 13
5.1159997 1.0827745 -1.631758 16
5.405591 1.144065 -1.5843636 30
6.1158671 1.2943913 -1.6365108 11
6.8884611 1.4579067 -1.6683271 13
7.8259363 1.6563184 -1.700302 19
8.0912542 1.7124716 -1.5582402 22
9.6521568 2.0129228 -1.6199083 21
12.0653 2.516175 -1.7321486 29
12.099463 2.5232997 -1.4453794 2
18.211407 3.797924 -1.735593 19
24.589634 5.1280804 -1.7564679 18
51.640766 10.769497 -1.2247409 27
4.8411589 1.0096064 -1.6710106 13
5.08181 1.0597934 -1.6198429 15
5.1962924 1.0836682 -1.5220696 14
6.1556683 1.2837427 -1.6461345 11
6.7841644 1.4148133 -1.6420432 16
7.6105809 1.5871594 -1.6524823 78
8.0943756 1.6880531 -1.5578699 22
9.7079992 1.9962978 -1.6283386 27
12.089738 2.4860651 -1.7346537 78
14.801326 3.0436604 -1.7671168 22
18.173178 3.7370291 -1.7309484 19
20.329939 4.1805334 -1.4513532 9
51.692181 10.629686 -1.2252516 27
55.543812 11.421714 0 56
4.8346796 0.99417603 -1.6678094 13
5.0791392 1.0444454 -1.6180557 13
5.246376 1.0788349 -1.5358514 31
5.185123 1.0662392 -1.3857919 1
6.6832461 1.3743048 -1.6166818 18
7.8334303 1.6108221 -1.6998862 21
8.0913572 1.6638607 -1.5563886 22
9.9943485 2.0242939 -1.6753535 30
12.091237 2.4490056 -1.7338185 57
15.238616 3.0864878 -1.8182231 15
17.729437 3.5909882 -1.6876608 46
24.64027 4.9907351 -1.7580026 18
49.380535 10.001723 -2.349575 22
51.803841 10.492549 -1.2271549 27
4.822752 0.97681874 -1.6626877 13
5.0784736 1.0286136 -1.6168643 15
5.3852205 1.0907433 -1.5755432 27
6.0169449 1.2186952 -1.6071336 20
7.8420091 1.5883507 -1.7007178 21
8.2195425 1.6648178 -1.5800881 48
10.094793 2.0153103 -1.6912413 29
12.080548 2.4117436 -1.7313135 43
15.091331 3.0128121 -1.799639 45
18.159248 3.6252868 -1.7276044 19
23.666067 4.7246599 -1.6875486 5
49.292679 9.8407211 -2.3440783 21
51.59568 10.300488 -1.2215378 27
54.039635 10.788396 0 53
4.7734337 0.95296156 -1.644761 13
91.056274 18.178345 4.3301163 63
5.1075373 1.0196615 -1.6252047 17
5.217741 1.0416623 -1.3928831 7
5.73873 1.145672 -1.3865836 8
7.8444958 1.566064 -1.700302 22
8.8023748 1.7572937 -1.6911794 29
9.9977522 1.9669183 -1.6740565 100
12.266019 2.4131682 -1.7569214 20
14.376571 2.8283899 -1.7134552 10
17.618303 3.4661555 -1.6752132 13
23.565628 4.6362085 -1.6794568 11
49.294483 9.6980028 -2.3428671 21
51.983265 10.226982 -1.2300329 28
4.7258806 0.9297511 -1.6274747 13
5.147831 1.012764 -1.6371197 16
5.7323594 1.1277618 -1.3842779 8
7.8430796 1.5430166 -1.6990544 22
8.0937195 1.5923265 -1.5541667 12
10.051983 1.946628 -1.6821626 47
12.119515 2.3470185 -1.7349321 29
17.650017 3.4180338 -1.6772571 13
23.804535 4.6098938 -1.6955009 17
51.28511 9.9316759 -1.2128105 26
56.331432 10.908927 0 58
4.734199 0.91680664 -1.6293954 13
5.0945816 0.98659694 -1.6192472 18
5.2641172 1.0194285 -1.5375051 21
5.5446711 1.0737596 -1.4784819 8
5.6974678 1.1033496 -1.3750556 7
7.8437819 1.5189965 -1.6982228 24
8.071394 1.5630749 -1.5489825 18
10.075162 1.9201167 -1.6850806 34
12.114755 2.3088207 -1.7332619 19
15.316087 2.9189281 -1.8233337 15
23.163517 4.4144855 -1.6489035 11
51.357567 9.7876854 -1.2138318 26
4.7406211 0.9034639 -1.6306759 13
5.0806079 0.96825838 -1.6138854 20
5.2671189 1.0038035 -1.5375051 40
5.7064519 1.0875313 -1.376439 7
7.8501763 1.4960806 -1.6986386 22
8.0779276 1.5394852 -1.5493528 18
12.117262 2.2742522 -1.7327052 22
15.339797 2.8790803 -1.8251922 15
23.367922 4.3858547 -1.6625758 5
54.575081 10.243032 0 54
4.7431254 0.89022291 -1.6306759 15
5.0870447 0.95477211 -1.615077 20
5.5325465 1.0383869 -1.6141325 15
6.1687832 1.1578003 -1.6430954 20
6.8169308 1.2794492 -1.6434265 16
7.8524013 1.4737935 -1.6982228 21
8.1227617 1.5245366 -1.5571293 18
11.93465 2.2054968 -1.7057056 100
15.32629 2.8322642 -1.8226368 15
23.425201 4.3289247 -1.6657846 5
52.131046 9.6337013 -1.2308222 28
54.770638 10.121491 0 54
4.8499322 0.89625669 -1.6665291 14
5.0915685 0.94091052 -1.6156727 20
5.5429864 1.0243316 -1.6163375 16
5.8390398 1.0790415 -1.5544574 14
6.9104218 1.2770305 -1.6650991 16
7.8391728 1.4486617 -1.6944804 21
8.1115246 1.4989916 -1.5541667 18
10.131991 1.8412994 -1.6918899 16
11.863198 2.1559136 -1.6945719 35
11.814658 2.1470926 -1.4042619 8
23.461498 4.2636871 -1.6674588 5
49.333481 8.9654341 -2.3383019 21
54.890945 9.975399 0 54
4.8693485 0.88491273 -1.6722912 14
5.0943379 0.92580032 -1.6156727 20
5.5214109 1.0034128 -1.609171 29
6.190578 1.1250215 -1.6471474 15
6.9524755 1.263482 -1.6743215 16
7.8588347 1.4281957 -1.6978071 22
11.844196 2.1161733 -1.6909533 22
11.852265 2.117615 -1.4079789 5
18.056412 3.2260945 -1.7112554 4
24.933317 4.4547744 -1.7711169 25
20.449593 3.6536782 -0.96874905 6
4.8700871 0.87012643 -1.6716509 14
5.1045799 0.91202265 -1.6180557 20
5.4656949 0.97654217 -1.5920815 48
6.1291313 1.0950767 -1.6299263 18
6.9351201 1.2390808 -1.6692492 23
7.8726664 1.4065899 -1.6998862 19
8.7858419 1.5697446 -1.6815515 19
11.856275 2.0820513 -1.6917883 24
15.249152 2.6778662 -1.8105571 15
18.968121 3.330945 -1.796716 20
24.899261 4.3724985 -1.7677685 18
51.159168 8.9839363 -1.2059401 25
4.8838444 0.85763991 -1.6754923 14
5.1129045 0.89786464 -1.6198429 21
5.4496322 0.95699656 -1.5865686 32
5.5778112 0.97950578 -1.4825339 16
6.8256755 1.1986401 -1.6420432 22
7.8613911 1.3805196 -1.6965597 24
8.8214331 1.5491102 -1.6874763 21
11.876063 2.0492179 -1.6937368 15
19.005394 3.279386 -1.7993169 20
23.7836 4.1038666 -1.6876881 5
45.125389 7.7863984 -2.1354778 24
51.258503 8.8446693 -1.2076578 26
4.884501 0.84282196 -1.6748521 14
5.1080213 0.88139045 -1.61746 21
5.6589518 0.97645366 -1.6466577 18
5.395751 0.93103826 -1.4334033 5
6.7467375 1.1641514 -1.6222152 15
7.8500295 1.3545247 -1.6932329 26
8.8569803 1.5282744 -1.6934012 25
10.316271 1.7504251 -1.719126 35
12.348417 2.095232 -1.7602615 28
14.878506 2.5245275 -1.7647939 33
49.604336 8.4166727 -2.3463144 22
51.172611 8.6827717 -1.2050581 25
4.8849673 0.82886243 -1.6742117 14
5.1029329 0.86584604 -1.615077 21
5.659761 0.96032643 -1.6461064 20
6.2071252 1.0532011 -1.6481605 11
6.728857 1.1417265 -1.6171428 15
7.8576393 1.333254 -1.6940647 22
8.8437729 1.5005774 -1.6900684 23
10.286379 1.7139717 -1.7132897 29
12.202198 2.0331957 -1.7385505 38
14.633161 2.438256 -1.7348269 72
19.075037 3.1783853 -1.8041474 20
23.255802 3.8750069 -1.6486245 5
51.336205 8.553915 -1.2083076 26
54.862625 9.1415062 1.2913095 48
4.8911428 0.81498849 -1.6754923 14
5.1017127 0.85007483 -1.6138854 18
5.7043056 0.95048201 -1.6582345 18
6.231216 1.0382787 -1.6537319 11
6.751411 1.1249564 -1.6217541 12
7.8596311 1.3096139 -1.6936489 24
8.8753281 1.4788549 -1.6952527 23
10.17232 1.6657869 -1.693511 34
10.804495 1.7693098 -1.538698 6
14.681079 2.4041269 -1.7397052 25
18.684908 3.0597813 -1.7664332 95
23.52446 3.8522909 -1.6669008 5
49.468632 8.1008263 -2.3376498 21
51.304642 8.4014854 -1.2070079 26
54.860313 8.9837503 1.2906595 48
4.8971395 0.80194002 -1.6767728 14
55.071827 9.0183878 2.6024299 35
5.1021824 0.83551723 -1.6132897 20
5.6025882 0.91746211 -1.6279143 39
6.1481695 1.0068047 -1.6309394 22
6.7545257 1.1060997 -1.6217541 12
7.8709793 1.2889266 -1.695312 21
8.916275 1.4601009 -1.7022884 23
10.274646 1.6512524 -1.7097231 53
15.125518 2.4308426 -1.7915084 48
18.792212 3.0201218 -1.7757224 35
23.047262 3.7039573 -1.6323016 5
49.372124 7.9346619 -2.3319664 21
51.433975 8.2660246 -1.2094681 26
55.172047 8.8667746 0 54
4.9107223 0.78920889 -1.6806142 14
5.0970993 0.81916183 -1.6109068 20
5.5521374 0.89229161 -1.6124786 43
6.1587706 0.98978448 -1.6329653 20
6.7712283 1.0882133 -1.6249819 15
7.8882895 1.2677377 -1.6982228 22
8.9283314 1.4348843 -1.7037697 21
10.187876 1.6063151 -1.6944838 100
15.052213 2.3732717 -1.7819841 22
18.54734 2.924346 -1.7517563 14
49.196136 7.7567201 -2.3225567 21
54.878067 8.652586 0 54
4.6448417 0.73234892 -1.7114688 16
4.9261436 0.77670157 -1.6850959 14
5.0504737 0.79630458 -1.5954173 20
5.2812953 0.83269811 -1.5330951 29
6.2323942 0.98265725 -1.651706 13
6.8090301 1.0735749 -1.6332819 16
7.8881516 1.2437192 -1.6973913 21
8.9636116 1.4132863 -1.7096945 17
10.180894 1.5742674 -1.6925384 63
14.381907 2.2238684 -1.70184 7
19.242754 2.9754989 -1.816595 21
25.143061 3.887861 -1.7790692 18
49.307777 7.6244411 -2.3267491 21
51.701454 7.9945745 -1.2146209 26
4.6581388 0.72028607 -1.7155731 15
4.9340439 0.76294917 -1.6870166 14
5.0980968 0.78831661 -1.6097152 20
5.2989426 0.81937325 -1.5375051 29
6.2333708 0.96386355 -1.6511995 15
6.8775764 1.0634768 -1.64896 16
7.8744073 1.2176163 -1.6936489 21
8.9599972 1.3854806 -1.7082134 19
10.116959 1.5354679 -1.6811899 32
18.563875 2.8174706 -1.7517563 14
24.096539 3.6571722 -1.7042902 5
49.413815 7.4996171 -2.3307555 21
52.172318 7.9182806 -1.2251587 27
54.592819 8.2856436 0 53
4.6564155 0.70671201 -1.7142049 13
4.9211683 0.746894 -1.6818947 14
5.1059418 0.77493733 -1.6115025 20
5.4285603 0.82390171 -1.5744407 29
6.2264738 0.94500238 -1.6486669 15
6.9940405 1.0614972 -1.6761661 14
7.8623033 1.193275 -1.6903222 24
8.9230232 1.3542622 -1.7004368 23
10.226882 1.521124 -1.6986989 79
10.858657 1.6150929 -1.5428731 4
15.035018 2.2362757 -1.7775704 100
23.408691 3.4817576 -1.6549026 11
49.248116 7.3250566 -2.3219044 21
52.179756 7.7611027 -1.2247874 27
54.725964 8.1398201 0 53
4.6733632 0.69510585 -1.7196773 15
4.9064956 0.72978139 -1.6761324 16
5.110106 0.76006603 -1.6120982 20
5.5298643 0.82249993 -1.603107 20
6.2215948 0.92538637 -1.6466409 18
7.0356579 1.0464684 -1.6853884 14
7.8503294 1.1676408 -1.6869956 26
8.3224077 1.2378567 -1.5852723 42
9.9122658 1.4495784 -1.6458476 22
10.856692 1.5876921 -1.5420381 1
14.934298 2.1840048 -1.7650262 30
18.671457 2.73053 -1.7604882 20
25.002357 3.6563666 -1.7669315 25
49.259937 7.2038164 -2.321625 21
51.872131 7.5858259 -1.2171278 27
54.506241 7.9710402 0 53
4.6824861 0.68477088 -1.7224134 13
4.9138889 0.71861136 -1.6780531 14
5.1119485 0.74757576 -1.6120982 18
5.4785938 0.80119437 -1.5876713 39
6.2180943 0.90933955 -1.6451213 15
7.8338022 1.1456221 -1.6828375 26
8.3001261 1.2138177 -1.5804584 52
9.9304466 1.4203889 -1.6481173 29
10.87339 1.5552617 -1.5437082 6
14.801467 2.1171093 -1.7485328 54
18.013645 2.5765591 -1.6976931 18
24.991997 3.5746989 -1.7653968 18
49.311996 7.0532794 -2.3230226 21
52.048115 7.4446368 -1.2207022 27
54.588428 7.8079867 0 53
4.6864748 0.67032403 -1.7230974 15
4.9348783 0.70585412 -1.6844555 14
5.0991521 0.72935081 -1.6073322 20
6.1577153 0.88076109 -1.6284068 24
7.8354254 1.1207303 -1.6824214 27
8.16576 1.1679792 -1.5541667 16
9.9192238 1.3870001 -1.6455234 26
14.827717 2.0733523 -1.7508557 58
25.30344 3.5381672 -1.7866029 12
49.248825 6.8864384 -2.3190162 21
4.6922798 0.65611917 -1.7244656 15
4.9483304 0.69192255 -1.6882969 14
5.0976362 0.71279991 -1.6061407 21
5.3768954 0.75184858 -1.5567999 15
6.8999691 0.96481919 -1.6508045 16
7.8679695 1.1001742 -1.688659 26
8.7689056 1.2261516 -1.6682204 27
10.000791 1.3734964 -1.658493 100
18.382866 2.5246801 -1.7311343 19
25.800222 3.5433712 -1.8210624 19
49.202171 6.7573662 -2.316035 21
51.478771 7.0700316 -1.2064043 26
4.6938691 0.64465028 -1.7244656 15
4.9612694 0.68137473 -1.6921383 14
5.1144948 0.70241845 -1.6109068 20
5.3939538 0.74079901 -1.56121 43
6.1452866 0.84398615 -1.6238482 13
6.8598895 0.9421289 -1.6406598 16
7.8667574 1.0804108 -1.6878272 27
8.8848104 1.220229 -1.6896981 17
10.104814 1.3554546 -1.6750294 100
12.470652 1.6728069 -1.7683336 11
18.4361 2.4730091 -1.7354074 14
25.86264 3.4692016 -1.8246899 19
49.45483 6.6338458 -2.3269355 21
51.613686 6.9234338 -1.2090504 26
55.263035 7.4129553 0 54
4.7033224 0.63090128 -1.7272017 13
4.9652634 0.66603792 -1.6927786 16
5.1337061 0.68863273 -1.6162684 20
5.4572291 0.73202997 -1.5788509 16
6.1114726 0.81978983 -1.6142247 27
5.7402301 0.76999158 -1.3722888 1
7.8468466 1.052572 -1.6828375 26
8.8885994 1.1923122 -1.6896981 21
10.347283 1.358572 -1.7145866 24
14.610189 1.9182808 -1.7232119 14
18.40937 2.4171035 -1.7322489 29
25.872229 3.3969579 -1.8246899 19
49.253292 6.4668322 -2.3165941 21
52.189888 6.8523998 -1.2220949 27
4.7050662 0.61776322 -1.7272017 13
4.9727402 0.65290815 -1.6946993 14
5.1923981 0.68174869 -1.6341408 18
5.45544 0.71628541 -1.5777484 15
5.7339077 0.75284755 -1.5139371 18
5.7790198 0.75877064 -1.3810501 3
7.8245406 1.0273423 -1.6774317 27
8.9094324 1.1697859 -1.6930308 23
10.372569 1.3324394 -1.7181534 21
10.994718 1.4123595 -1.5579038 3
14.680509 1.8858287 -1.7308778 25
18.374569 2.3603604 -1.7283475 28
26.085438 3.350883 -1.8390596 13
49.237473 6.3249474 -2.3150103 21
52.024387 6.6829486 -1.2177777 27
55.55352 7.1362944 0 55
4.7142291 0.60558039 -1.7299378 13
4.9820609 0.63998556 -1.6972601 14
5.2132182 0.66967958 -1.6400983 18
5.4650464 0.70202893 -1.5799534 15
5.987381 0.76912701 -1.580289 31
5.7251387 0.7354399 -1.3676777 3
7.8254375 1.00524 -1.6770158 29
8.9477539 1.1494106 -1.6996963 25
10.366685 1.3004261 -1.7165321 22
12.341047 1.5480957 -1.7480142 13
14.755026 1.850912 -1.7390084 50
18.2906 2.2944245 -1.7198013 19
26.164551 3.282155 -1.8439426 19
49.271877 6.1808033 -2.3157556 21
51.67696 6.4825034 -1.2091897 26
4.7160048 0.59158897 -1.7299378 12
4.9895782 0.62590677 -1.6991808 14
5.241704 0.65753412 -1.6484389 18
5.4842734 0.68796271 -1.5849149 16
5.9013281 0.74027926 -1.5569899 29
5.6655045 0.71069688 -1.352922 3
7.880796 0.98858923 -1.6882432 22
9.0018282 1.1292148 -1.7093242 17
10.390309 1.2702489 -1.7197746 24
12.339952 1.5085989 -1.7471793 20
15.023014 1.836612 -1.7699045 100
16.45154 2.0112541 -1.5462792 11
26.479712 3.2372303 -1.8654276 13
4.7197061 0.57699931 -1.7306219 9
4.9952817 0.61068928 -1.7004614 14
5.2361631 0.64013785 -1.6460561 21
5.5780063 0.68192929 -1.611376 22
5.8018379 0.70929343 -1.5301453 21
5.7952037 0.70848238 -1.3833557 6
7.9343495 0.96999985 -1.6990544 17
8.9682646 1.0963993 -1.7022884 23
10.354192 1.2401643 -1.7132897 26
14.293736 1.7120198 -1.6834882 28
24.936443 2.9867408 -1.756189 12
49.589294 5.9395142 -2.3290784 21
52.301987 6.2644248 -1.2229769 27
54.56004 6.5348811 0 52
4.7453599 0.56837136 -1.7395145 8
5.0024023 0.59915841 -1.7023821 14
5.1865282 0.62121195 -1.6299707 27
5.7209139 0.68521744 -1.6521704 16
5.8496594 0.70063782 -1.5423013 25
5.7969174 0.69432074 -1.3833557 6
7.9250426 0.94921505 -1.6965597 13
8.9494514 1.0719128 -1.6982152 27
10.358037 1.2076266 -1.7132897 26
12.0413 1.4038755 -1.7037573 36
14.681827 1.7117301 -1.7285548 54
18.454321 2.1515591 -1.7333637 14
26.531069 3.0932138 -1.8677993 20
49.663269 5.7901592 -2.331687 21
53.000622 6.179256 -1.2388531 29
54.872326 6.3974748 0 53
4.7601895 0.55498272 -1.7443027 5
5.0042601 0.58343852 -1.7023821 14
5.2984438 0.61773688 -1.6645242 18
5.5931854 0.65210038 -1.6146837 41
6.0651498 0.7071259 -1.5985231 21
5.9459801 0.69323206 -1.4184008 4
7.8599749 0.9163816 -1.6820056 21
9.032814 1.053121 -1.7133976 21
10.265285 1.1677681 -1.6974019 35
11.927104 1.356815 -1.6870564 28
14.879975 1.6927305 -1.7513204 32
18.414747 2.0948427 -1.7290906 9
23.474903 2.6704807 -1.6521124 11
49.663364 5.649653 -2.3309417 21
52.66008 5.9905558 -1.2304972 28
4.8028021 0.5463618 -1.7593515 4
5.011518 0.57010508 -1.7043028 13
5.3267059 0.60596055 -1.6728647 17
5.5682425 0.63343745 -1.6069659 29
5.9594464 0.67794043 -1.570159 38
5.8608785 0.66672748 -1.3976504 6
7.8741665 0.89575696 -1.6845007 21
9.0357199 1.0278941 -1.7133976 23
10.221626 1.1320931 -1.6896203 29
11.980289 1.3268732 -1.6940151 24
15.031035 1.6647577 -1.7685107 51
26.59207 2.9451966 -1.8708687 20
52.73127 5.8402357 -1.2317505 28
54.6558 6.0533862 0 53
4.8044019 0.53211004 -1.7593515 1
5.0414357 0.55836266 -1.7139063 14
5.3322759 0.59057456 -1.6740562 17
5.549077 0.61458635 -1.6009018 33
5.8748941 0.65067214 -1.5473663 31
5.8976483 0.65319222 -1.4059505 2
7.9273434 0.87799048 -1.695312 16
9.007473 0.99761993 -1.7074727 21
10.266147 1.1061969 -1.6964293 79
12.114137 1.3053213 -1.712386 96
14.873957 1.6026973 -1.7494619 29
18.422894 1.9851021 -1.728719 14
15.113398 1.6284975 -1.0629492 8
50.059517 5.3940086 -2.3479912 22
52.476021 5.6543913 -1.2253908 27
54.39315 5.8609657 0 52
5.0411863 0.54319745 -1.7132661 11
104.41348 11.250751 4.8974094 63
5.3415971 0.57556731 -1.6764392 15
5.5566111 0.59873545 -1.6025556 29
6.1076393 0.65810984 -1.6081467 18
5.6712403 0.61108696 -1.3515385 5
7.9454737 0.85613996 -1.6986386 17
9.0143032 0.97130841 -1.7082134 19
10.171243 1.0654533 -1.6802171 60
12.425238 1.3015627 -1.7558079 26
15.101895 1.5819467 -1.775712 78
26.474148 2.7732077 -1.8613818 19
52.184334 5.4663892 -1.2181954 27
5.0559669 0.52962029 -1.7177477 9
5.3432813 0.55971694 -1.6764392 15
5.6520538 0.59206134 -1.6295681 29
6.1191859 0.64099413 -1.6106791 18
5.723352 0.59952992 -1.3635277 1
7.9460335 0.83235919 -1.6982228 19
9.0347366 0.94640255 -1.7115461 19
10.140983 1.0318707 -1.6747051 60
12.415254 1.2632836 -1.7538595 22
14.989925 1.525263 -1.7620063 72
17.598316 1.7906734 -1.6503183 8
26.263924 2.672421 -1.8460352 19
52.536503 5.3457222 -1.2260407 27
5.0443215 0.51327252 -1.7132661 6
5.3696113 0.54637158 -1.684184 13
5.6671748 0.57664943 -1.633427 31
6.0921888 0.6198957 -1.6030817 21
6.9177556 0.7038992 -1.6475767 26
7.9465227 0.80857885 -1.6978071 16
9.0316401 0.91899234 -1.7104353 21
10.3595 1.0285382 -1.7103715 73
12.351293 1.2262924 -1.7443957 18
14.631862 1.4527177 -1.7194951 43
18.008869 1.7880023 -1.688404 18
26.300156 2.6111989 -1.8481281 19
52.748371 5.2370977 -1.2306828 28
5.0606441 0.50244373 -1.7183878 6
5.36903 0.53306168 -1.6835883 12
5.7030029 0.56621999 -1.64335 22
6.0763569 0.60328829 -1.5985231 27
7.9367938 0.78800094 -1.695312 14
9.0279903 0.89633989 -1.7093242 21
10.52591 1.0098244 -1.7372836 19
12.386836 1.188356 -1.7488494 22
14.723604 1.4125386 -1.7297163 54
15.005641 1.4395964 -1.406384 3
26.473509 2.5397894 -1.8597076 19
50.298153 4.8254542 -2.3563764 22
54.493801 5.2279725 0 52
5.079257 0.48728877 -1.7241501 4
5.3707681 0.51525545 -1.6835883 11
5.593852 0.53665745 -1.611376 24
94.54744 9.0705986 8.8613338 63
6.2401047 0.59865701 -1.6410694 20
6.7357216 0.64620501 -1.6033093 34
7.9374161 0.76149195 -1.6948962 17
9.0093927 0.86433423 -1.7052509 23
10.524588 0.9818992 -1.7366352 17
12.409624 1.1577652 -1.7516328 28
14.832078 1.3837698 -1.7420284 43
27.248842 2.542201 -1.9136992 20
44.750824 4.1750617 -2.0959749 24
52.531658 4.9009805 -1.2249266 27
5.3949099 0.50332212 -1.6907371 7
5.5512109 0.5179044 -1.5986967 18
6.2840319 0.58627343 -1.6522124 18
95.028938 8.8657951 11.161154 63
6.6870098 0.62386954 -1.5913202 33
7.9218521 0.73907506 -1.6911539 17
9.0194521 0.84147656 -1.7067322 21
10.496005 0.94782478 -1.7314472 22
14.964716 1.3513644 -1.7571278 76
27.290045 2.4643834 -1.9160708 20
50.151211 4.5288239 -2.3482709 22
52.890476 4.7761889 -1.2329575 28
54.340889 4.907166 0 52
5.4096904 0.48851332 -1.6949073 5
5.6599483 0.51111245 -1.6295681 15
6.2876711 0.56779796 -1.652719 15
6.4969468 0.58669627 -1.5456694 13
7.9298549 0.71609271 -1.6924013 17
9.0512714 0.8173604 -1.7122866 23
10.361148 0.90466386 -1.7087505 27
12.349193 1.0782464 -1.742169 30
14.986469 1.3085151 -1.7592186 76
19.588091 1.7102969 -1.8344301 21
27.321087 2.3854887 -1.9177449 21
49.961414 4.3622861 -2.3387678 21
52.460224 4.5804648 -1.2226056 27
5.3882918 0.47046846 -1.6877584 3
90.519737 7.9035587 6.3538384 63
5.6710162 0.49515399 -1.6323246 14
6.6886549 0.58400714 -1.5908591 24
7.9397402 0.69324332 -1.6940647 19
9.0654039 0.79152846 -1.7145085 21
10.387231 0.87772232 -1.7126412 22
12.156778 1.0272493 -1.7146127 66
14.683256 1.240737 -1.7232119 68
19.67613 1.6626354 -1.8422329 21
26.570198 2.2451851 -1.8645905 6
49.987339 4.2239361 -2.3394198 21
52.391125 4.4270568 -1.2207022 27
5.4713893 0.46233308 -1.7133757 2
90.497719 7.647069 6.350769 63
5.6723771 0.47931656 -1.6323246 12
88.681488 7.4935966 8.3030529 63
6.2677016 0.52962154 -1.6466409 11
6.8027339 0.57483184 -1.6176039 37
7.9318986 0.67024642 -1.6919855 21
9.0499535 0.76472223 -1.7111758 17
9.1189661 0.74491018 -1.5031816 3
12.080643 0.98684365 -1.7034789 73
14.809417 1.2097517 -1.7376146 100
19.706499 1.6097847 -1.8446482 21
26.560457 2.1696708 -1.8634744 6
50.006905 4.0849643 -2.3397925 21
52.339512 4.2755103 -1.2192167 27
5.8174043 0.47521216 -1.6736702 11
88.674286 7.2436256 8.3004522 63
6.2730131 0.51242995 -1.6476539 11
6.8683214 0.56105947 -1.6328208 81
9.0167933 0.73656386 -1.7045103 19
9.1173267 0.7159512 -1.5025331 6
12.25546 0.96237767 -1.727695 73
15.126041 1.1877942 -1.7743182 45
17.9168 1.4069425 -1.6766996 9
27.637226 2.170253 -1.9385324 28
56.003597 4.3977633 0 55
5.8821168 0.46190169 -1.6918622 8
6.2823071 0.49332723 -1.6496799 11
7.0776453 0.55578232 -1.6821606 28
7.5612798 0.59376037 -1.6121473 100
9.0229816 0.70854259 -1.7052509 21
9.2058792 0.69704586 -1.5167997 1
12.025064 0.91050738 -1.6948501 36
14.887643 1.1272546 -1.7459774 21
17.827333 1.3498405 -1.6679678 13
20.029619 1.516592 -1.4046164 9
49.890816 3.7776065 -2.3332708 21
52.960094 4.0100045 -1.2330968 28
5.9006367 0.44678131 -1.6968236 5
6.287519 0.47607505 -1.6506928 11
7.0384178 0.53293121 -1.672477 33
99.285271 7.5176301 13.993578 63
7.9198895 0.59967399 -1.6882432 29
8.9974871 0.68126696 -1.7000666 23
9.091774 0.66127902 -1.4976695 1
12.314134 0.89565331 -1.7352103 43
15.055365 1.0950334 -1.7652584 86
17.839203 1.2975124 -1.6687108 9
27.199558 1.9783262 -1.9070024 20
49.96756 3.6343288 -2.3363454 21
52.205986 3.797138 -1.2152709 26
5.8846798 0.4280149 -1.6918622 5
6.3043418 0.45853853 -1.654745 11
7.0244408 0.51091403 -1.6687881 30
7.9333401 0.57702166 -1.690738 27
8.9720259 0.65256923 -1.6948824 23
10.507137 0.73472959 -1.7304746 11
12.381785 0.86581761 -1.7443957 26
14.89587 1.0416193 -1.7462096 36
27.240801 1.9048598 -1.9095137 27
89.235664 6.2399573 6.2552028 63
5.8858523 0.41157833 -1.6918622 3
89.17804 6.2359276 8.34021 63
6.2920871 0.43998501 -1.6511995 9
7.0025434 0.48966488 -1.6632546 23
7.9349203 0.55486292 -1.690738 24
8.9228373 0.62394476 -1.6852545 23
10.566375 0.70737588 -1.7398775 9
12.101715 0.81016064 -1.7045922 80
14.764117 0.98839766 -1.7304132 47
27.294109 1.8272297 -1.9128619 27
49.752445 3.3307242 -2.3253517 21
89.295486 5.9779701 8.3494997 63
6.2914343 0.42118597 -1.6506928 9
7.0136743 0.46953702 -1.6655602 23
7.9423881 0.53171062 -1.6919855 21
8.918767 0.59707522 -1.6841437 23
10.568427 0.67602372 -1.7398775 9
12.457859 0.79688376 -1.7544163 26
14.642092 0.93660116 -1.7157781 14
18.159864 1.1616203 -1.6976931 18
27.377062 1.7512106 -1.9183031 28
52.410732 3.3525231 -1.2193096 27
6.2366614 0.39893645 -1.6360044 11
7.0208631 0.44909897 -1.6669437 23
7.9322166 0.50739491 -1.6894906 26
8.855772 0.5664714 -1.6719235 31
10.566335 0.64626426 -1.7392291 9
12.199093 0.74612796 -1.7176746 50
14.604996 0.89327919 -1.7111322 17
18.8925 1.155514 -1.7658758 20
27.419683 1.6770585 -1.9209539 21
49.716965 3.0408177 -2.3228362 21
55.226799 3.3778133 0 53
61.895626 3.785696 1.4397193 63
6.1720905 0.37750095 -1.6187832 11
6.9599299 0.42568728 -1.6521878 27
7.9296975 0.48500073 -1.688659 24
8.7788486 0.536937 -1.6571114 55
12.533294 0.73144603 -1.7644367 43
14.419041 0.84149873 -1.6890635 28
18.949331 1.1058875 -1.770892 30
27.478035 1.6036248 -1.9247206 21
49.741215 2.9029095 -2.3235815 21
52.600304 3.0697665 -1.2233018 27
61.121506 3.567066 1.4214756 63
91.391014 5.333602 4.2691851 63
6.1982303 0.36173022 -1.6253678 9
6.9280643 0.40432352 -1.6443489 29
7.9075851 0.4614886 -1.6836691 27
8.0249128 0.46833587 -1.5145442 8
10.568013 0.58344132 -1.7389048 16
12.466316 0.68824327 -1.7546946 31
14.796484 0.81688774 -1.7329686 14
19.235054 1.0619333 -1.7972734 20
27.48493 1.5173944 -1.9248601 21
50.071259 2.7643456 -2.3385816 21
61.052551 3.3706033 1.4196187 63
6.1027431 0.33692166 -1.6000426 8
6.9390159 0.38309079 -1.6466544 26
7.9168086 0.43707299 -1.6853322 26
8.0616684 0.44507045 -1.5212097 16
10.494804 0.5481779 -1.7265836 24
19.271925 1.0066355 -1.8004316 20
27.515211 1.4372094 -1.9266738 21
51.721539 2.7015848 -1.2024585 25
6.1269021 0.3200281 -1.6061207 4
6.9751043 0.36433247 -1.6549546 27
7.91221 0.41328055 -1.6840849 27
19.071627 0.94610828 -1.7814817 41
27.817783 1.379989 -1.9476008 28
49.706791 2.4658625 -2.3208797 21
61.246685 3.0383353 0 63
61.256145 3.0388045 1.423936 63
6.187624 0.30695662 -1.6218222 2
6.935216 0.34404328 -1.6452711 32
7.9054489 0.39217478 -1.6824214 24
8.1562901 0.40461853 -1.538614 8
12.248289 0.56904358 -1.7232416 35
16.041265 0.74526167 -1.8779247 16
19.054613 0.88525885 -1.7796239 30
27.905685 1.296471 -1.9534603 28
52.325451 2.4309895 -1.2161529 26
61.321861 2.848954 0 63
61.165524 2.8416908 1.4216149 63
93.53846 4.345706 6.5479007 63
7.8871007 0.36642703 -1.6782633 24
8.1771526 0.37990257 -1.5423169 12
9.992238 0.43977031 -1.6432537 21
11.642205 0.51238734 -1.6377891 14
12.252563 0.5392499 -1.4342289 5
19.219852 0.84588856 -1.7948581 46
27.829042 1.2247894 -1.9478798 21
28.002432 1.2324204 -1.3071311 10
51.813869 2.28039 -1.2041297 25
61.130825 2.6904404 0 63
93.539703 4.1167936 4.3663583 63
91.185745 4.0131936 10.673785 63
7.8977447 0.34758916 -1.6803426 22
10.265693 0.41948882 -1.687999 45
11.612096 0.47450709 -1.6333357 11
12.248244 0.50050211 -1.433532 8
18.609589 0.76044691 -1.7376367 14
27.715137 1.1325285 -1.9396485 21
49.62661 2.0279007 -2.3162215 21
60.921162 2.4894321 0 63
7.9085703 0.32316929 -1.6824214 24
9.1787128 0.37507132 -1.7308019 25
10.063828 0.37957659 -1.6546021 26
12.326015 0.46489927 -1.7335403 42
14.770771 0.55710793 -1.7285548 7
18.623825 0.70243329 -1.7387514 4
27.754444 1.0468121 -1.9421598 21
49.46703 1.865744 -2.3084886 21
52.144863 1.9667436 -1.2115108 26
61.114548 2.3050525 0 63
7.0807762 0.26706505 -1.6789328 24
101.7114 3.8362403 14.30477 63
7.9232306 0.29883984 -1.6853322 24
10.301404 0.36333907 -1.693511 60
12.489418 0.44051209 -1.7563647 18
13.553157 0.47803107 -1.5859216 9
20.450422 0.72130328 -1.9091151 29
27.80278 0.98062706 -1.9453685 28
49.53334 1.7470819 -2.3113768 21
52.824909 1.8631783 -1.2272012 27
7.0230603 0.24770914 -1.6650991 13
7.9239373 0.27948382 -1.6853322 26
9.1119175 0.32138488 -1.7178413 10
10.30441 0.33283326 -1.6938354 79
12.217498 0.39462614 -1.717953 100
13.52672 0.43691412 -1.5826695 13
20.368879 0.65791637 -1.9013122 23
49.931671 1.6127969 -2.3297305 21
61.296036 1.9798669 0 63
102.2515 3.3027315 4.7708888 63
7.0393252 0.22737077 -1.6687881 13
7.9169111 0.25571686 -1.6836691 26
8.1070604 0.26185867 -1.5282456 2
10.256035 0.30081338 -1.6857293 100
12.430442 0.36458954 -1.747736 33
15.962314 0.46818069 -1.8674711 16
20.354818 0.59701449 -1.899826 23
26.278505 0.77075851 -1.8383622 6
49.846371 1.4620129 -2.3255379 21
52.341381 1.5351925 -1.2157351 26
6.8434954 0.20072231 -1.6222152 12
7.8980799 0.23165368 -1.6795107 26
9.1411676 0.26811391 -1.7230256 10
10.146355 0.26923722 -1.6675717 53
11.683031 0.3100135 -1.6425211 35
16.185965 0.42950046 -1.8934888 16
20.358397 0.54021746 -1.9000118 23
26.264597 0.69694066 -1.8372461 13
49.832283 1.3223178 -2.3246996 21
52.019665 1.3803608 -1.2081684 26
93.319008 2.476254 10.916773 63
6.8615379 0.18207341 -1.6263652 9
7.920208 0.2101656 -1.6840849 26
10.192489 0.24020249 -1.6750294 81
12.200676 0.28752866 -1.7151694 100
19.669102 0.46353421 -1.8355447 21
26.707352 0.62940198 -1.8680784 13
49.861958 1.1750777 -2.3259108 21
51.623756 1.2165973 -1.1988841 25
61.594902 1.4515835 0 63
7.0566058 0.16630034 -1.672477 6
7.9481773 0.18731166 -1.6899064 26
9.1523838 0.21569075 -1.724877 10
10.043235 0.20511514 -1.6503869 22
20.496698 0.41860849 -1.912645 23
26.104801 0.53314394 -1.825806 6
49.913334 1.0193908 -2.3281467 21
51.387436 1.0494967 -1.1933135 24
61.539169 1.2568277 0 63
8.0386972 0.16417605 -1.7090342 22
9.2276869 0.18845904 -1.7389486 12
10.219323 0.18373321 -1.6792445 100
11.687236 0.21012481 -1.6427995 16
14.933804 0.26849484 -1.7466743 14
20.521553 0.36895698 -1.9148744 24
27.875418 0.50117213 -1.949554 14
52.373425 0.94162178 -1.2161529 26
96.491966 1.7348289 13.563254 63
8.0527658 0.14478068 -1.7119449 26
9.2458067 0.16623035 -1.7422814 23
10.253396 0.15212215 -1.6847565 73
12.499769 0.18544996 -1.7569214 18
20.600266 0.30563113 -1.9221201 24
28.349648 0.42060307 -1.9826185 21
49.860325 0.73974127 -2.3254449 21
61.993183 0.91974765 0 63
7.9455972 0.11788303 -1.6890748 24
9.1558847 0.13583918 -1.7252474 27
10.178813 0.12081575 -1.6724354 53
15.37017 0.18243372 -1.7975483 26
20.56723 0.24411938 -1.9189618 24
28.137308 0.33397117 -1.9676907 21
49.904247 0.59233034 -2.3274014 21
61.987637 0.73575211 0 63
95.954185 1.1389124 13.486431 63
7.9263501 0.094080515 -1.6849164 22
9.0363636 0.10725565 -1.7026588 57
10.392244 0.094322011 -1.7074534 60
12.577868 0.11415914 -1.7677768 20
15.330893 0.13914613 -1.7929024 15
17.664562 0.16032696 -1.6480888 17
49.967636 0.45351589 -2.3302896 21
52.101814 0.47288612 -1.2097003 26
7.991137 0.072529092 -1.6986386 26
9.1683064 0.083213314 -1.7274692 21
10.240519 0.062555864 -1.6824868 60
12.425653 0.075904109 -1.7463442 30
14.794903 0.090377055 -1.730181 10
17.491714 0.10685097 -1.6319257 4
50.294403 0.30723152 -2.3454757 21
53.490589 0.32675594 -1.2419169 29
62.734833 0.38322589 0 63
8.1008682 0.049485464 -1.7219248 16
9.1842356 0.056103393 -1.7304317 21
10.141982 0.031868059 -1.6662749 60
12.512966 0.039318148 -1.7585914 22
19.5749 0.061508104 -1.8262557 15
26.574976 0.083503686 -1.8583125 19
53.39735 0.16778475 -1.2397351 29
92.927994 0.29199764 8.6697903 63
8.0129461 0.02517822 -1.7032127 17
97.563545 0.30656344 16.029181 63
9.2059803 0.028926963 -1.7345048 21
10.368989 0.0036223733 -1.7035625 35
12.483319 0.0043610078 -1.7544163 26
15.492426 0.0054122293 -1.8117187 31
17.695158 0.0061817472 -1.6508757 4
50.103546 0.017503513 -2.3365316 21
53.757511 0.018780015 -1.248091 29
8.0794983 0.002822547 -1.7173507 8
9.27285 0.0032394407 -1.7470953 19
10.408429 -0.025432643 -1.7100474 53
10.362135 -0.025319522 -1.4563075 9
15.204344 -0.037151296 -1.7780349 22
16.65164 -0.040687714 -1.5535249 3
28.027477 -0.068484187 -1.9598778 14
50.219276 -0.12270909 -2.3419354 21
53.033554 -0.12958568 -1.2312864 28
8.0579557 -0.01968934 -1.7127765 6
9.2964077 -0.022715455 -1.7515389 21
10.291841 -0.061073728 -1.6909171 100
10.332275 -0.061313678 -1.4521323 4
15.37297 -0.091226108 -1.7977806 15
30.830175 -0.18295209 -2.1558936 19
50.238518 -0.29812488 -2.3428671 21
52.580906 -0.31202504 -1.220795 27
8.1713009 -0.048490047 -1.7368944 4
9.3198566 -0.055305794 -1.7559825 27
10.301543 -0.084505938 -1.6925384 35
14.784749 -0.12128271 -1.7290194 14
19.699789 -0.16160192 -1.83796 43
31.047142 -0.25468686 -2.1711004 20
50.153809 -0.41142327 -2.3389542 21
53.049919 -0.43518075 -1.2317041 28
8.2044268 -0.067302808 -1.7439635 4
9.3786678 -0.076935381 -1.7670918 23
10.433486 -0.11472679 -1.7142625 43
14.990932 -0.16484055 -1.7531787 14
19.788866 -0.21759871 -1.8463203 21
29.027363 -0.31918538 -2.0299134 15
50.154461 -0.55149931 -2.3390472 21
65.030075 -0.7150718 0 63
9.1700954 -0.10083453 -1.7278395 23
10.545555 -0.14909419 -1.7327442 17
12.452367 -0.17605291 -1.750241 26
14.740071 -0.20839673 -1.7239088 14
19.881668 -0.28108919 -1.8550521 37
21.082409 -0.29806539 -1.4743729 9
50.260353 -0.71058631 -2.3440783 21
65.127495 -0.92077953 0 63
9.1716986 -0.12967047 -1.7282099 23
10.343855 -0.17332916 -1.6996716 100
12.208292 -0.20457102 -1.7160045 66
14.713655 -0.24655271 -1.7208889 14
20.083954 -0.33654135 -1.8740021 22
12.03093 -0.20159902 -0.84140259 2
54.341728 -0.91058958 -1.2618318 31
65.124863 -1.0912795 0 63
95.195183 -1.5951598 8.882513 63
9.1615009 -0.15351678 -1.7263582 21
10.278145 -0.2045287 -1.6889716 63
11.928389 -0.23736753 -1.6767576 12
19.895647 -0.39591101 -1.8565383 22
12.012284 -0.23903701 -0.84014696 6
50.119602 -0.99734896 -2.3377428 21
54.20866 -1.0787187 -1.2588143 30
65.321068 -1.2998487 0 63
9.1472187 -0.18202397 -1.7237661 19
10.255792 -0.23452736 -1.6854051 58
12.038513 -0.2752943 -1.692345 19
12.078512 -0.27620897 -1.4128572 2
19.886421 -0.45475867 -1.8557953 22
12.10128 -0.27672964 -0.84642506 6
50.146378 -1.1467373 -2.3391404 21
54.265186 -1.2409253 -1.2602069 31
9.1407433 -0.20902868 -1.7226553 19
10.568832 -0.26937124 -1.7369593 24
12.087249 -0.30807161 -1.6993037 19
14.913495 -0.38010508 -1.7445836 14
12.087567 -0.30807972 -1.1280798 10
28.487165 -0.72606164 -1.9926635 7
49.99741 -1.2743002 -2.332339 21
52.486805 -1.3377482 -1.2189846 27
10.496916 -0.30053949 -1.7252866 34
12.157491 -0.34808379 -1.7093241 28
12.09062 -0.3461692 -1.4144833 11
20.156178 -0.57709593 -1.8812476 22
28.492722 -0.81578135 -1.9932215 7
50.192863 -1.4370829 -2.341656 21
9.107955 -0.26077184 -1.7167304 10
10.426995 -0.32768151 -1.7139382 53
12.617708 -0.39652744 -1.7741787 30
14.74267 -0.46330705 -1.3761013 13
64.786018 -2.0359826 0 63
8.0051336 -0.25157145 -1.5089897 2
14.774522 -0.50819248 -1.7287871 14
18.35141 -0.63122505 -1.7131133 14
30.262165 -1.0409138 -2.117388 8
49.536839 -1.7038959 -2.3114698 21
64.91761 -2.2329412 0 63
7.9748888 -0.27430859 -1.5034353 2
10.208062 -0.37788072 -1.6782717 22
12.476754 -0.46186289 -1.7546946 31
15.195969 -0.56252241 -1.7782673 45
18.381533 -0.68044525 -1.7160858 14
14.674092 -0.54320365 -1.0268153 7
49.260696 -1.823526 -2.2987993 21
54.472004 -2.0164375 -1.2655455 31
64.907547 -2.4027393 0 63
95.597107 -3.5388014 8.9248724 63
9.3156061 -0.34484389 -1.7563528 8
10.411907 -0.41818541 -1.7119927 35
12.150695 -0.48802233 -1.7090459 21
14.767381 -0.59311926 -1.7283225 65
14.763932 -0.5929808 -1.3785164 9
26.697231 -1.0722716 -1.8683573 6
49.428391 -1.9852493 -2.3069048 21
54.928898 -2.2061725 -1.2763153 32
9.1848631 -0.36890221 -1.7319127 8
10.515201 -0.45174876 -1.7291776 22
15.047484 -0.6464625 -1.7613093 14
18.480627 -0.79395545 -1.7257465 9
26.544638 -1.1403974 -1.8578939 6
49.600296 -2.130903 -2.3151965 21
9.1798697 -0.39438096 -1.7311722 8
10.551187 -0.4865081 -1.7353381 22
12.29399 -0.56686759 -1.7296435 17
15.36883 -0.70864636 -1.7991744 37
18.529762 -0.85439485 -1.7305769 4
27.519493 -1.2689052 -1.9263948 21
50.794777 -2.3421128 -2.3712831 23
52.799664 -2.4345567 -1.2271549 27
65.264656 -3.0093093 0 63
9.1550264 -0.42213207 -1.7267286 6
15.511628 -0.75864518 -1.8161324 34
20.056826 -0.98094237 -1.8734447 16
26.762581 -1.3089086 -1.8736589 6
50.648357 -2.4771178 -2.3647614 22
54.51413 -2.6661859 -1.2671702 31
9.1538115 -0.44769606 -1.7267286 4
9.9688578 -0.51546723 -1.6400112 26
15.061108 -0.77877611 -1.7636323 37
14.899308 -0.77040976 -1.3918929 10
31.355444 -1.6213195 -2.1955152 10
50.587368 -2.6157594 -2.3622458 22
53.018867 -2.7414865 -1.2325861 28
10.337856 -0.56349748 -1.7009686 27
12.692241 -0.69183064 -1.7864261 28
12.137153 -0.66157383 -1.4214524 11
19.925766 -1.0861168 -1.8617404 16
31.251184 -1.7034445 -2.1885395 10
50.697567 -2.7634308 -2.3677428 22
53.064907 -2.8924704 -1.2338395 28
12.484619 -0.71548629 -1.757478 48
15.131886 -0.8671996 -1.7724599 41
17.425611 -0.99865168 -1.6283958 4
31.246304 -1.7907076 -2.1885395 10
50.560001 -2.8975644 -2.3616867 22
54.801289 -3.14063 -1.274412 32
12.581158 -0.76068079 -1.7713953 31
14.948648 -0.90382379 -1.7513204 36
18.370533 -1.1107175 -1.7170147 14
50.684261 -3.064467 -2.367929 23
54.55365 -3.2984178 -1.2688879 31
12.074687 -0.76813835 -1.700417 56
15.510735 -0.9867245 -1.8175262 42
18.345091 -1.1670338 -1.7149712 19
30.224947 -1.9227779 -2.1178064 8
50.684353 -3.2243149 -2.3683949 23
10.049076 -0.66393572 -1.6546021 68
12.076726 -0.79790121 -1.7009737 24
18.358082 -1.2129061 -1.7164574 19
32.834064 -2.1693244 -2.300987 42
50.732143 -3.3518388 -2.3710034 23
54.879536 -3.625854 -1.2769188 32
10.340421 -0.71400535 -1.7029141 29
12.10592 -0.83591294 -1.7054273 14
13.333177 -0.92065495 -1.5629239 9
18.346455 -1.2668215 -1.7157142 47
32.881222 -2.2704463 -2.3047538 14
50.574486 -3.4921651 -2.3641093 22
53.853226 -3.7185616 -1.2532902 30
10.50177 -0.75461859 -1.729826 86
12.467019 -0.89583421 -1.7566431 48
12.928339 -0.92898291 -1.5157666 3
33.006096 -2.3716967 -2.3139617 14
49.639931 -3.5669429 -2.3208797 21
53.834652 -3.8683603 -1.2531044 30
10.578069 -0.79351234 -1.7427957 47
12.483893 -0.93647754 -1.7594265 24
18.082451 -1.3564526 -1.6917481 13
33.036285 -2.4782124 -2.3166125 14
53.666714 -4.0258012 -1.2494836 30
10.571876 -0.8227424 -1.7421472 34
11.904657 -0.92646438 -1.6781493 22
13.411777 -1.043754 -1.5731452 3
29.315559 -2.281445 -2.0561419 22
50.64566 -3.9414322 -2.3689539 23
54.532372 -4.2439108 -1.2699091 31
10.376462 -0.84033883 -1.7103715 19
11.966831 -0.96913505 -1.6873348 29
13.636129 -1.1043233 -1.5998598 9
18.699312 -1.5143657 -1.75027 39
33.024975 -2.6745307 -2.3168914 14
50.74255 -4.1093903 -2.3740778 23
55.190392 -4.4695992 -1.2855532 33
10.46288 -0.87307584 -1.7249624 34
12.290085 -1.0255471 -1.7332619 100
13.609635 -1.1356571 -1.5970722 9
18.778904 -1.5670071 -1.7580729 10
27.598455 -2.3029554 -1.9365792 7
55.26897 -4.6119237 -1.2876421 33
10.464017 -0.90628213 -1.7256109 17
12.085542 -1.0467213 -1.7048707 100
12.456169 -1.0788212 -1.462105 2
32.001762 -2.7716529 -2.2461584 12
50.993477 -4.4165139 -2.386935 23
54.899632 -4.7548232 -1.2793791 32
10.372991 -0.92758954 -1.7110201 13
12.108216 -1.0827595 -1.7084892 80
18.683985 -1.670788 -1.7500842 9
31.918386 -2.854255 -2.2408569 12
50.947121 -4.5558715 -2.3853512 23
54.768639 -4.8976054 -1.2766403 32
10.322862 -0.95580578 -1.7032382 6
12.055451 -1.1162282 -1.7015305 66
15.266224 -1.4135175 -1.7929024 15
18.684593 -1.7300283 -1.7506416 4
30.870255 -2.8583126 -2.1678917 10
51.000195 -4.722167 -2.3885188 23
95.138153 -8.8089523 8.9139109 63
99.9086 -9.2506533 14.101298 63
10.440167 -0.99424058 -1.723017 6
12.525588 -1.19284 -1.471397 8
21.760624 -2.0723131 -2.0393496 7
10.466454 -1.0299336 -1.7278807 6
14.923731 -1.4685442 -1.7536433 43
18.612883 -1.831569 -1.7448822 4
51.065598 -5.025023 -2.3928978 24
55.423306 -5.4538355 -1.2929806 34
10.100466 -1.020625 -1.6678959 6
12.422043 -1.2552142 -1.7546946 35
13.915824 -1.4061568 -1.6356342 6
18.667463 -1.8862971 -1.7504559 9
32.800468 -3.3143995 -2.3053119 14
55.120384 -5.569767 -1.2862495 33
10.442871 -1.0865347 -1.7249624 6
12.493121 -1.2998542 -1.7652718 33
