# .PCD v0.7 - Point Cloud Data file format
VERSION 0.7
FIELDS x y z intensity
SIZE 4 4 4 4
TYPE F F F F
COUNT 1 1 1 1
WIDTH 1442
HEIGHT 1
VIEWPOINT 0 0 0 1 0 0 0
POINTS 1442
DATA ascii
10.389794 6.3469381 -1.4237753 11
12.816559 7.8294053 -1.4011821 13
14.962275 9.1401834 -1.2260398 3
4.1053743 2.5078995 -1.625554 6
4.3517547 2.6584084 -1.5912471 10
4.7299118 2.8894179 -1.5893251 9
5.1299644 3.1338029 -1.5737045 8
5.5369577 3.3824279 -1.5373693 11
5.9782701 3.6520174 -1.4890636 5
6.9688826 4.257165 -1.538614 10
8.0850849 4.9061484 -1.5537632 6
9.0873194 5.5143185 -1.4938841 14
10.447641 6.3397822 -1.4291183 11
13.176817 7.9958858 -1.4379673 14
19.023214 11.543566 -1.555988 15
4.1160383 2.4976726 -1.6268345 6
4.3612561 2.6464741 -1.5918428 10
4.7318907 2.8713808 -1.5871201 10
5.1475115 3.1235855 -1.5762371 8
5.556953 3.3720407 -1.540136 11
5.9890804 3.6342618 -1.4890636 5
6.9764438 4.2334085 -1.5375032 12
8.0480518 4.8529797 -1.5440359 6
8.9551249 5.3999453 -1.469668 19
10.480614 6.3198156 -1.431209 13
18.95628 11.430647 -1.5478961 20
4.1213737 2.4851909 -1.6261944 6
4.3718982 2.6362572 -1.5930341 10
4.7234263 2.8482289 -1.5816072 10
5.1694679 3.1171923 -1.580289 8
5.5763469 3.3625402 -1.5429027 11
5.9975295 3.6165137 -1.4886478 5
6.7694345 4.0819731 -1.4893636 48
7.9921651 4.7888942 -1.530742 6
8.9005165 5.3331776 -1.4582559 35
10.42836 6.2486587 -1.4216846 33
13.386963 8.0214491 -1.4559883 14
19.063431 11.422782 -1.5540348 15
4.1299243 2.4746449 -1.6268345 6
4.2989964 2.5759528 -1.5638425 10
4.7264156 2.8320618 -1.5799534 10
5.1681962 3.096776 -1.57725 10
5.5406432 3.3199458 -1.5304526 11
6.0243878 3.6098049 -1.4928061 5
7.057301 4.228725 -1.5500935 12
7.9902091 4.7536736 -1.5274997 6
9.0687122 5.3953152 -1.4830287 26
10.642556 6.3316541 -1.448167 57
13.410383 7.9783378 -1.4558026 14
19.130083 11.381201 -1.556546 15
4.1311636 2.4577835 -1.6242737 6
4.3333197 2.5780535 -1.5733744 10
4.7352891 2.8172002 -1.5799534 10
5.1579456 3.0686545 -1.571172 12
5.5376649 3.2945635 -1.5267636 10
6.0491481 3.5988638 -1.4961327 5
7.0975747 4.2226124 -1.5560182 12
8.043355 4.7530384 -1.5349572 6
9.1903944 5.4308553 -1.5002862 14
10.724572 6.3374429 -1.4567622 54
13.461426 7.9547243 -1.458775 17
19.03838 11.250299 -1.5463616 15
4.741971 2.8021605 -1.5794022 10
5.2136669 3.0808983 -1.5853541 8
5.550766 3.2800994 -1.5276859 10
7.0965362 4.1935372 -1.5530559 14
8.0778942 4.7449574 -1.5391723 6
9.2028751 5.4057713 -1.5000079 17
10.698308 6.2841883 -1.4509546 54
13.552607 7.960804 -1.4663923 14
17.115232 10.053492 -1.3880143 4
5.1850133 3.0456779 -1.5742109 8
5.5442328 3.2566836 -1.5235357 10
7.0515666 4.1420918 -1.5408359 16
8.101284 4.7245288 -1.5407935 6
9.2403412 5.3888068 -1.5033479 16
10.712849 6.2475481 -1.4502578 51
13.563786 7.9101648 -1.464906 14
4.3210177 2.519943 -1.5608637 11
4.7580318 2.774802 -1.5794022 10
5.5762906 3.251996 -1.5295303 11
6.0296249 3.5163729 -1.483658 5
7.052659 4.1129889 -1.5382438 12
8.1281061 4.7098045 -1.5433874 6
9.2827711 5.378871 -1.5078015 14
10.603063 6.1439099 -1.4330673 27
13.615112 7.8892317 -1.4680643 14
4.3049107 2.4944663 -1.5525233 12
5.1109209 2.9615061 -1.5463533 12
5.6072397 3.2490966 -1.5355248 11
6.0800447 3.523062 -1.4936378 5
7.064117 4.0932794 -1.5382438 14
8.1292553 4.6801925 -1.5411178 7
9.2634296 5.3331618 -1.5022346 17
10.77684 6.2044659 -1.4542068 60
13.623286 7.8432274 -1.466578 14
16.00581 9.2148991 -1.2914712 3
4.1182952 2.3709936 -1.6057068 7
4.3813534 2.5224423 -1.5775448 10
4.5501943 2.6196477 -1.5055313 58
5.1493535 2.964597 -1.5554703 14
5.6331577 3.2431338 -1.540136 11
6.1237683 3.525589 -1.5019542 5
7.0704112 4.0705924 -1.5371327 12
8.0488768 4.6021757 -1.5232846 21
9.2878084 5.3105702 -1.5036263 16
10.855556 6.2069755 -1.4623374 57
13.651682 7.8057394 -1.4671353 14
19.639093 11.229214 -1.5819373 10
4.1746573 2.3869798 -1.6249138 7
4.3672719 2.4971128 -1.5698 11
4.4828429 2.5631936 -1.480724 37
5.1396508 2.9387424 -1.5498989 14
5.6528916 3.2322025 -1.5429027 11
6.1460896 3.5142026 -1.5048649 5
7.089282 4.0534997 -1.538614 12
8.1551676 4.6308994 -1.5407935 9
9.3173008 5.2908144 -1.5058531 14
11.024208 6.2600794 -1.4825476 25
13.532786 7.6845717 -1.4519011 14
19.552612 11.102921 -1.5723109 5
4.189959 2.3792617 -1.6281151 7
4.3281751 2.4577475 -1.5531191 12
4.7997088 2.725507 -1.5827098 16
5.1550765 2.9273024 -1.5519248 14
5.6793795 3.2250268 -1.547514 11
6.1598907 3.4978843 -1.5056967 5
7.1046944 4.0343895 -1.5393546 12
8.1542044 4.5965319 -1.5378753 10
9.320076 5.2537351 -1.5036263 19
11.017865 6.2107797 -1.479063 23
13.504822 7.6126795 -1.4463276 24
19.514404 11.000286 -1.5664514 10
4.1990643 2.3670158 -1.6287552 7
4.2510543 2.3963227 -1.5227358 13
4.8115983 2.712302 -1.5838124 12
5.1929016 2.927243 -1.5605354 12
5.6979604 3.2119451 -1.5498195 11
6.1708503 3.4785135 -1.5056967 5
7.1464419 4.0284553 -1.5456498 10
8.1860676 4.5881777 -1.5417662 9
9.2378597 5.1776924 -1.4883173 27
11.008744 6.170249 -1.4758109 17
13.445208 7.5358534 -1.4379673 14
19.32889 10.833575 -1.5494308 15
4.15029 2.3261802 -1.6076275 9
4.4101171 2.4718096 -1.5775448 12
4.8182096 2.7005398 -1.5838124 11
5.1882224 2.907927 -1.5569899 10
5.7125807 3.2018225 -1.551664 11
6.1759167 3.4615159 -1.5048649 5
7.1648335 4.0157905 -1.5475013 10
8.1935463 4.5585938 -1.5404693 7
9.3804255 5.2189302 -1.5086365 16
11.008985 6.1250019 -1.4732556 14
13.531466 7.52842 -1.4446555 14
19.341915 10.761144 -1.5477567 15
4.1774478 2.3241811 -1.6153102 7
4.3811579 2.4375181 -1.5644382 13
4.5897899 2.5535936 -1.5060825 43
5.2040973 2.8953719 -1.5590159 8
5.7107091 3.1772327 -1.5484362 11
6.1662488 3.4306784 -1.4998751 5
7.1877227 3.9989896 -1.5497233 10
8.1406069 4.4994187 -1.5281482 13
9.4296293 5.2118778 -1.5142034 14
11.041693 6.1028857 -1.4753462 20
13.596007 7.5146885 -1.4493002 17
17.257288 9.5383263 -1.3788065 8
4.1988463 2.3207567 -1.6210724 9
4.488205 2.4806888 -1.6001832 10
4.8089118 2.6579475 -1.5755432 13
5.215549 2.8827012 -1.5600289 8
5.7161522 3.1593912 -1.547514 11
6.1638193 3.4068222 -1.4969643 6
7.2143426 3.9874601 -1.5530559 10
8.2196646 4.5113297 -1.5404693 7
9.4242172 5.1724434 -1.5108633 16
11.164235 6.1274452 -1.4892843 24
13.572855 7.4494066 -1.4444698 14
18.179258 9.9776125 -1.4500976 4
4.2356119 2.3246984 -1.6325966 7
4.5022402 2.4710362 -1.6025661 8
4.8353157 2.6538436 -1.5816072 11
5.220686 2.8653524 -1.5590159 8
5.730619 3.145227 -1.5488973 11
6.1738997 3.3885198 -1.4969643 8
7.195127 3.9490163 -1.5463904 12
8.22435 4.4821973 -1.538848 9
9.4412622 5.1454034 -1.5111417 14
11.241672 6.1266103 -1.4971826 24
13.635117 7.431016 -1.4487427 14
4.2458186 2.3139331 -1.633877 6
4.511229 2.4585793 -1.6031621 8
4.8566742 2.6468437 -1.5860174 10
5.196887 2.8322568 -1.5493923 8
5.6886621 3.1002698 -1.5350637 11
6.1856451 3.3711212 -1.4973801 6
7.2223458 3.9361138 -1.5497233 16
8.2350979 4.4582744 -1.5385239 7
9.4486265 5.1152482 -1.5100282 19
11.360056 6.1500478 -1.510656 12
13.655813 7.3929129 -1.4487427 14
18.275024 9.8936377 -1.4531668 4
22.388044 12.120323 -1.1872253 9
4.2489309 2.3002641 -1.6325966 6
4.5130396 2.4432459 -1.6013747 8
4.8674273 2.6351025 -1.5871201 10
5.2166858 2.824182 -1.5529379 8
5.699008 3.0852993 -1.5355248 11
6.2346025 3.3752565 -1.5069441 6
7.2125678 3.9047024 -1.5452795 8
8.244813 4.4319534 -1.5378753 9
9.5248184 5.1200137 -1.5197703 16
11.388751 6.1219602 -1.5120499 12
13.693473 7.3608508 -1.4504148 14
52.105137 28.008829 -1.3734293 41
4.215683 2.2661171 -1.6172309 7
4.5185871 2.4289415 -1.6007789 8
4.8836908 2.6252012 -1.5898763 10
5.2318583 2.8123567 -1.5549639 8
5.7372775 3.0840418 -1.5433638 11
6.2842207 3.3780484 -1.516508 6
7.217196 3.879564 -1.5437982 8
8.2571564 4.4089136 -1.5378753 9
9.516366 5.0812697 -1.5161518 19
10.578711 5.648509 -1.4024036 5
14.225152 7.5955291 -1.504478 14
18.071228 9.6491442 -1.432519 4
52.188435 27.866049 -1.3735685 41
4.1868949 2.2355952 -1.6037861 9
4.5270362 2.4172139 -1.6013747 7
4.8859148 2.6088371 -1.5882225 10
5.2482247 2.8022928 -1.5574963 8
5.764751 3.0780926 -1.5484362 11
6.3039837 3.3660159 -1.5190029 6
7.2332029 3.8621733 -1.5449092 8
8.2789202 4.3890142 -1.5394965 9
9.4911556 5.031673 -1.5097499 19
10.584893 5.6115108 -1.4010098 2
18.806639 9.9702139 -1.4884636 14
4.1851397 2.2187238 -1.6005849 7
4.5257545 2.3992984 -1.5983959 7
4.9293051 2.6132381 -1.5997993 9
5.2701921 2.7939572 -1.5615485 8
5.7738595 3.0609729 -1.5484362 11
6.3329568 3.3573747 -1.5235771 5
7.2463675 3.8416135 -1.5452795 8
8.2709494 4.3534017 -1.5356055 7
9.5148048 5.0081034 -1.5111417 24
11.45053 6.0269694 -1.5132114 12
14.305218 7.5295305 -1.5081935 14
17.490824 9.2062693 -1.3821548 4
4.5125799 2.3751898 -1.5912471 6
4.9370365 2.5986018 -1.5997993 9
5.2767467 2.7774079 -1.561042 8
5.789804 3.0474548 -1.5502807 11
6.3428898 3.3385706 -1.5235771 5
7.269908 3.8265052 -1.5478717 8
8.2785835 4.326098 -1.5346329 7
9.4752092 4.9514122 -1.5025129 17
11.346883 5.9294839 -1.4971826 18
14.322203 7.484282 -1.5076363 14
17.417274 9.1016579 -1.3742025 4
52.604534 27.489288 -1.3780251 41
4.5466814 2.3759365 -1.6007789 6
4.919167 2.5705845 -1.5915302 9
5.2883945 2.7635298 -1.5620549 8
5.7867475 3.0239518 -1.5470529 11
6.3493009 3.3179224 -1.5227454 5
7.2934237 3.8112876 -1.5504638 8
8.2888794 4.3020554 -1.5343087 7
9.6313858 4.9988365 -1.5250589 11
11.536183 5.9874558 -1.5199481 12
13.662568 7.0910821 -1.4361094 3
18.009283 9.3470936 -1.4188466 4
4.2413402 2.2013204 -1.61467 7
4.5566874 2.3649905 -1.6019704 6
4.9092617 2.547982 -1.5860174 7
5.2875037 2.7442956 -1.5595224 8
5.7830772 3.0015056 -1.5438249 11
6.3759041 3.3091919 -1.5269036 6
7.3197374 3.7990558 -1.5537964 8
8.3131399 4.285223 -1.5365784 6
9.5784121 4.9374399 -1.5144819 14
10.867774 5.6020746 -1.4298152 11
13.570805 6.9954219 -1.4244051 10
19.487717 10.045446 -1.5331078 10
4.2878904 2.210304 -1.6300356 7
4.4835138 2.3111432 -1.5739703 6
4.9180665 2.5351446 -1.5865686 7
5.3037457 2.7339525 -1.5620549 8
5.8294926 3.0049624 -1.5539696 11
6.3885984 3.2931681 -1.5277352 6
7.3600168 3.7939107 -1.5600917 8
8.3293324 4.2623339 -1.5372268 6
9.5277863 4.8756132 -1.5041831 16
11.338821 5.8023667 -1.4895166 12
13.703184 7.0122724 -1.4361094 10
19.540529 9.9993916 -1.5349215 10
52.855499 27.047522 -1.3784893 42
4.9204335 2.5179124 -1.5849149 7
5.304945 2.7146771 -1.5600289 8
5.8574405 2.9974031 -1.5590419 11
6.3635116 3.2563727 -1.5194188 5
7.4114833 3.7926469 -1.5686086 8
8.3042555 4.2202821 -1.5304178 6
9.6649561 4.9117999 -1.5236673 8
11.438211 5.8129811 -1.5004348 12
13.687207 6.9559369 -1.4323938 6
19.602169 9.9619637 -1.5375723 5
4.2819695 2.1761277 -1.6229931 6
4.9051642 2.4928398 -1.5777484 7
5.3245788 2.7059891 -1.5635744 8
4.9393368 2.5102065 -1.3128046 1
6.3760672 3.2403631 -1.5202504 5
7.4273019 3.7746081 -1.5697196 6
8.3245211 4.1977291 -1.5317148 6
9.5477066 4.8145332 -1.5027913 13
13.680541 6.8985596 -1.4294212 10
19.832888 10.000947 -1.5531976 5
4.3040109 2.1703436 -1.6287552 6
4.6044869 2.321862 -1.6091195 5
4.8992381 2.4704933 -1.5733382 6
5.3054113 2.6753106 -1.5554703 6
4.9593616 2.5008113 -1.3160324 1
6.3739877 3.2141516 -1.5173397 5
7.4391227 3.7512574 -1.5697196 6
8.3132715 4.1629763 -1.5274997 6
9.5699701 4.7922835 -1.5041831 9
11.587958 5.8028169 -1.5155344 12
20.039137 10.034852 -1.5671489 5
4.2693949 2.1379535 -1.6133896 6
4.4863329 2.246588 -1.5656297 7
4.8562665 2.4318371 -1.5573511 5
5.3682232 2.6882057 -1.5716785 8
5.037672 2.5226781 -1.3349383 1
6.3829393 3.1963377 -1.5173397 5
7.3476415 3.6794245 -1.548242 6
8.2789183 4.116899 -1.5190694 6
9.4166174 4.6826477 -1.4780185 8
11.629018 5.7828193 -1.5187865 12
13.692112 6.8087444 -1.4266344 10
20.220713 10.055254 -1.579147 5
4.4583983 2.2170498 -1.5537148 10
4.8802524 2.4268274 -1.5628638 6
5.4190187 2.6947424 -1.584341 8
6.3620615 3.1636939 -1.5102707 5
7.387805 3.6737704 -1.5545372 6
8.2787085 4.0862036 -1.5167997 6
9.7199526 4.7975726 -1.5233889 6
11.679968 5.764997 -1.5232003 12
13.730108 6.7769046 -1.4284923 10
20.670889 10.202734 -1.6119326 11
4.2765398 2.1108139 -1.6114689 6
4.6070547 2.2739494 -1.6031621 5
4.9374266 2.4370141 -1.5788509 5
5.4217854 2.676084 -1.5828216 8
5.9107151 2.9174099 -1.5618086 8
6.4170303 3.1673169 -1.521082 5
7.4533057 3.6788015 -1.5660164 6
8.3599167 4.0954804 -1.5294451 6
9.7305899 4.7669668 -1.5228322 6
14.624631 7.1645327 -1.5193406 11
19.719233 9.6603518 -1.5354795 5
4.2997999 2.1064501 -1.6178713 7
4.5949225 2.2510293 -1.5966086 5
4.9601746 2.4299643 -1.5838124 5
5.407115 2.6489182 -1.5762371 8
5.0035691 2.4512231 -1.3201824 1
6.4615369 3.1654742 -1.5293986 6
7.5047851 3.6765563 -1.5745336 4
8.3872919 4.0798907 -1.5323633 6
9.7082424 4.7224498 -1.5172652 6
11.757638 5.7193522 -1.5290079 9
13.921125 6.7717524 -1.4442838 3
17.239738 8.3860493 -1.3405799 4
4.3244076 2.1035526 -1.6249138 6
4.5823045 2.2290032 -1.5900555 5
4.9790421 2.4219911 -1.5876713 4
5.3762131 2.6151898 -1.565094 6
5.0051441 2.4346881 -1.3187991 1
6.4826651 3.153409 -1.5323093 6
7.5061855 3.6512876 -1.572682 4
8.3968773 4.0555921 -1.532039 6
9.7124767 4.6910114 -1.5158734 6
11.76641 5.6830368 -1.5280787 9
14.653659 7.0775437 -1.5182258 11
4.33709 2.0947633 -1.6274747 6
4.583354 2.2137058 -1.5882683 4
4.9927115 2.4114206 -1.5898763 4
5.334713 2.5766032 -1.5509118 6
5.1258316 2.4757159 -1.3487718 1
6.5108237 3.1446507 -1.5368834 6
7.4844961 3.614923 -1.5660164 4
8.3974924 4.0270095 -1.5300936 4
8.8629904 4.2502384 -1.3814323 4
11.748201 5.6338391 -1.523665 9
13.912045 6.6715078 -1.4394535 3
19.608778 9.4033709 -1.5206912 5
4.3531737 2.0875602 -1.6313162 6
4.6222267 2.2165844 -1.5995876 3
4.9595551 2.3783498 -1.577197 4
5.3523545 2.5667164 -1.5539508 6
5.8978071 2.8282878 -1.5498195 8
6.5195794 3.1264582 -1.5368834 6
7.4998789 3.5965598 -1.5671275 2
8.4029722 3.9972184 -1.5287966 4
9.6274662 4.579699 -1.4983377 4
11.758667 5.593492 -1.5227357 9
4.3511548 2.0698051 -1.6281151 6
4.6343389 2.2045133 -1.6013747 3
4.9426966 2.3511963 -1.5694792 3
5.3796105 2.5590324 -1.5595224 6
5.927752 2.8197784 -1.5553529 8
6.5223026 3.1026008 -1.53522 6
7.5164642 3.5755143 -1.5682384 2
8.40518 3.9695206 -1.5271753 4
9.6079836 4.5375695 -1.4933275 4
11.763465 5.5555406 -1.5213419 9
14.578015 6.8847699 -1.5041064 7
4.3500652 2.0544086 -1.625554 6
4.5817814 2.1638412 -1.5811192 2
4.9544592 2.3398461 -1.571133 3
5.3517466 2.5274734 -1.5493923 6
5.9514422 2.8106921 -1.5595031 8
6.5380177 3.0877147 -1.5368834 6
7.5726275 3.5763304 -1.5778662 2
8.4215927 3.9485483 -1.5281482 4
9.0593395 4.2475624 -1.4062051 4
11.750155 5.5091782 -1.5176251 9
13.654208 6.4019127 -1.4069414 3
19.939377 9.3487768 -1.5399438 5
4.3523536 2.0406449 -1.6242737 6
4.6725087 2.1907527 -1.6103109 2
5.0184164 2.3529348 -1.5893251 3
5.15207 2.4155998 -1.4896251 2
5.9645538 2.796541 -1.5608864 8
6.5714126 3.0810728 -1.5427049 6
7.634192 3.5793676 -1.5886052 2
8.4303761 3.9204092 -1.5274997 4
9.0636587 4.2149067 -1.4048134 3
11.758397 5.468051 -1.5164636 9
14.131083 6.5714297 -1.4539447 3
20.294281 9.4375248 -1.5650562 5
4.698411 2.1849196 -1.6168643 2
5.0100937 2.3298624 -1.5843636 3
5.2280536 2.4312212 -1.5093787 4
6.5633202 3.0521653 -1.5385467 6
7.6578732 3.5611691 -1.5911973 2
8.4312181 3.8904188 -1.5255542 3
9.097703 4.1979551 -1.4081535 3
11.763746 5.4281478 -1.5150698 6
14.761669 6.81148 -1.5167397 7
20.403711 9.4148893 -1.5713344 5
4.3096833 1.988618 -1.6037861 4
4.6996717 2.1685705 -1.615077 2
4.9000258 2.2610199 -1.5474283 2
5.2036214 2.401108 -1.5002615 4
6.5812278 3.0367773 -1.5406258 6
7.6755428 3.5417273 -1.5926784 2
8.4485521 3.8716185 -1.5268511 3
9.0816565 4.1617436 -1.4039783 1
11.770695 5.3940177 -1.5141406 6
14.746869 6.757874 -1.5133957 7
20.571583 9.4270973 -1.5823559 5
4.3544931 1.9954823 -1.6185114 4
4.6845059 2.1467135 -1.6079279 2
5.050992 2.3146586 -1.593184 3
5.318943 2.4374495 -1.5316647 2
6.5749297 3.0130155 -1.5372993 6
7.6865759 3.5224366 -1.5930487 2
8.4570818 3.8434222 -1.5262027 4
9.1018991 4.1364675 -1.4050918 1
11.794818 5.3602967 -1.5150698 6
14.893118 6.7683563 -1.5262146 3
4.3624659 1.9825751 -1.6191516 3
4.6495128 2.1130269 -1.5936301 2
5.0599899 2.2995732 -1.5937352 2
5.4234533 2.4647536 -1.5595224 4
6.0185838 2.7352176 -1.5664197 2
6.5968304 2.9980087 -1.54021 6
7.7047625 3.5015218 -1.59453 4
8.4803734 3.8254721 -1.5284723 3
9.781395 4.4123592 -1.5080799 3
11.851387 5.346127 -1.5204127 3
15.004538 6.7685041 -1.5356897 3
20.614433 9.2991114 -1.5813793 5
4.3403502 1.9579197 -1.6089079 3
4.6902018 2.1157367 -1.605545 3
5.0839162 2.2933402 -1.5992479 3
5.4426608 2.4551687 -1.5630679 4
6.0350685 2.7224021 -1.5687253 2
6.6087427 2.981185 -1.5410416 6
7.7037611 3.4751446 -1.5923082 4
8.4885578 3.8024523 -1.5281482 3
11.885284 5.324017 -1.5229681 6
14.998576 6.7186174 -1.5332744 3
20.671478 9.2597961 -1.5838906 5
4.71489 2.1120367 -1.6120982 3
5.0846391 2.2776656 -1.5975943 2
5.4031596 2.4203472 -1.5498989 4
6.6147385 2.9630744 -1.5406258 6
7.7576737 3.4750526 -1.6015657 4
8.4860315 3.7693586 -1.5255542 4
10.000315 4.4419789 -1.5378629 3
11.923735 5.2963309 -1.5257556 3
14.750263 6.5518293 -1.5057784 3
20.829922 9.2523155 -1.5937959 5
4.3584814 1.9359672 -1.6114689 4
4.7145224 2.0941148 -1.6097152 3
5.1005535 2.2655838 -1.6003506 2
5.4248819 2.4096451 -1.5539508 4
6.0470896 2.6860199 -1.5678031 2
6.6204386 2.9406922 -1.5397941 6
7.7739406 3.4530592 -1.6026766 4
8.4863434 3.7393861 -1.5236088 4
10.031576 4.4202709 -1.5406463 3
11.959394 5.2697368 -1.528311 3
13.740048 6.0543566 -1.4008105 3
4.3676744 1.9245534 -1.6127493 4
4.7259569 2.0824256 -1.6115025 3
5.082624 2.2395859 -1.5926328 3
5.4957476 2.4216228 -1.5721849 4
6.0301013 2.657078 -1.5613475 2
6.6255555 2.9194565 -1.5389625 6
7.8093324 3.4410708 -1.6078608 6
8.4919748 3.7118204 -1.5226359 4
10.090015 4.4103198 -1.547605 3
11.989538 5.2405963 -1.5301694 3
13.715983 5.9952207 -1.3965374 3
21.326864 9.3219175 -1.627558 5
4.3941989 1.920693 -1.6204321 4
4.7338634 2.0691595 -1.6120982 3
5.083961 2.2221863 -1.5909789 2
5.3894463 2.3557131 -1.5397688 2
6.0379577 2.6391757 -1.5613475 2
6.6144695 2.8911674 -1.5343884 6
7.8429189 3.4281197 -1.6126748 6
8.4769592 3.677098 -1.5180966 4
9.8061266 4.2536588 -1.5022346 3
11.998657 5.2047248 -1.5294725 3
15.022449 6.5163717 -1.5277009 3
21.380268 9.2742386 -1.6296507 5
4.408236 1.9121853 -1.6236333 4
4.7343683 2.0536535 -1.6103109 3
5.1042562 2.2141018 -1.595389 3
5.250453 2.2775185 -1.4982356 2
6.0649428 2.6308243 -1.5664197 2
6.6279011 2.8750217 -1.5356358 6
7.807384 3.3866527 -1.6034173 6
8.4968977 3.6558278 -1.5197178 4
10.098876 4.3450866 -1.5450999 3
12.028647 5.1753788 -1.5313309 3
15.160619 6.5229235 -1.5397768 3
21.28307 9.157135 -1.6201639 5
4.4173722 1.900594 -1.6249138 6
4.7492104 2.0433688 -1.6132897 5
5.1055059 2.1966665 -1.5937352 3
5.498898 2.3659251 -1.56712 4
6.0280309 2.5935872 -1.5548918 2
6.6651554 2.8677127 -1.542289 6
7.8300366 3.3689079 -1.6060095 6
8.5234098 3.6390576 -1.5226359 4
10.218438 4.3627472 -1.5615222 4
12.061324 5.1495647 -1.5336539 3
15.079882 6.4383335 -1.5297445 3
4.4139504 1.8845297 -1.6217127 4
4.746119 2.0263486 -1.6103109 5
5.1080852 2.1808896 -1.5926328 3
5.5001464 2.3482795 -1.5656004 4
6.0495696 2.582855 -1.5585808 5
6.7451057 2.8798132 -1.5589219 6
7.7671132 3.3161576 -1.5911973 6
8.5396214 3.6160622 -1.5236088 4
10.211277 4.3239169 -1.5584606 4
12.082037 5.1160812 -1.5343509 3
15.425322 6.5317798 -1.5628141 4
4.4020739 1.8640374 -1.6153102 4
4.7380462 2.0063033 -1.605545 5
5.1428585 2.1777191 -1.6014532 3
5.3556485 2.2678242 -1.5225476 4
6.0894632 2.5785546 -1.5668809 5
6.7878475 2.8742821 -1.5668226 6
7.8221626 3.312258 -1.6004548 6
8.5430336 3.5876534 -1.5223118 4
10.24232 4.3012705 -1.561244 3
12.111814 5.0863662 -1.5362092 3
14.816711 6.2222896 -1.499276 3
20.396429 8.5654964 -1.5469196 5
4.7457376 1.9929762 -1.6061407 5
5.1457515 2.1609623 -1.6003506 3
5.499712 2.3096085 -1.5615485 6
6.1042643 2.5634904 -1.5687253 5
6.7891307 2.8511007 -1.5651593 6
7.8555131 3.298929 -1.6052687 8
8.5469332 3.5629954 -1.5213391 6
10.280968 4.2858691 -1.5654191 4
12.15076 5.0653372 -1.5394615 6
13.568383 5.6563077 -1.3714566 3
13.630939 5.6823859 -1.0326749 2
4.4211607 1.8430675 -1.6185114 4
4.7615128 1.9849515 -1.6097152 5
5.1762347 2.1578383 -1.6080683 4
5.4771671 2.2832892 -1.5534444 4
6.119936 2.5512431 -1.571031 2
6.7369847 2.8084745 -1.5514371 6
7.8024445 3.2526371 -1.5926784 8
8.5538168 3.5361176 -1.5206906 6
10.282654 4.2508125 -1.5637491 4
12.189597 5.0391359 -1.5424814 6
13.667916 5.6502681 -1.379817 3
22.234268 9.1915674 -1.6823866 5
4.442368 1.8364592 -1.6242737 6
4.7709093 1.9722769 -1.6109068 5
5.2092638 2.1534913 -1.6163375 3
5.5357695 2.2884676 -1.568133 6
6.1346717 2.5360515 -1.5728755 5
6.7886763 2.8064146 -1.5614169 6
7.8338552 3.238488 -1.5971221 8
8.5679255 3.5122175 -1.5213391 6
10.159615 4.1646924 -1.5431514 4
12.213686 5.0067105 -1.5436429 6
13.727 5.627058 -1.3840899 3
4.4530573 1.8254251 -1.6261944 6
4.7767406 1.9581114 -1.6109068 5
5.2263041 2.1423993 -1.6196452 3
5.5103116 2.2588215 -1.5590159 6
6.1241632 2.5104554 -1.5682644 5
6.7770629 2.778096 -1.5568429 6
7.8979874 3.2375925 -1.6082313 8
8.5600252 3.4793463 -1.5180966 6
10.318708 4.1941886 -1.5654191 4
12.232169 4.9719424 -1.5441074 6
13.762086 5.5937991 -1.3859478 3
20.393936 8.2894106 -1.5393858 5
4.7683797 1.938177 -1.6061407 5
5.2308569 2.1261575 -1.6190939 3
5.5564227 2.2584884 -1.570159 6
6.1369934 2.4944699 -1.5696476 5
6.7780271 2.7550271 -1.5551796 6
7.9221253 3.2200625 -1.6111937 8
8.5861788 3.4620762 -1.5210147 6
10.334052 4.1668448 -1.5659759 4
12.288378 4.9548583 -1.5494505 6
13.982652 5.6380153 -1.4065698 3
20.4133 8.2309494 -1.5391068 5
4.4582243 1.797623 -1.6242737 6
4.7914796 1.9319965 -1.6120982 5
5.2296405 2.1086695 -1.6168888 4
5.5286126 2.2292194 -1.5605354 6
6.1601782 2.4838765 -1.5737977 5
7.9730091 3.2148368 -1.6197106 8
8.626339 3.446795 -1.5262027 6
10.352612 4.1365557 -1.5668108 6
12.331556 4.9272752 -1.552935 9
14.187068 5.6686754 -1.425334 3
20.794783 8.3088961 -1.5658934 5
4.4321799 1.7709501 -1.6127493 6
4.7939811 1.9155136 -1.6109068 5
5.1523328 2.0586989 -1.5909789 4
5.1043854 2.0395408 -1.4389747 5
6.7978892 2.716208 -1.5560112 6
8.0104485 3.200706 -1.6252652 8
8.6340952 3.4219663 -1.5258784 6
9.356986 3.7084711 -1.4145555 1
12.374813 4.904532 -1.5566517 9
13.643763 5.4074569 -1.3692273 3
20.80863 8.2471218 -1.5651958 5
4.8028607 1.9035264 -1.6120982 5
5.1759338 2.0513871 -1.5964917 4
5.6011014 2.2198946 -1.57725 6
6.0933971 2.4150069 -1.5530474 5
6.9473038 2.7534373 -1.5884454 6
7.9901204 3.1667387 -1.6193403 8
8.6595535 3.4058533 -1.5287966 6
10.372997 4.079761 -1.5665325 6
12.431977 4.8895702 -1.562227 9
13.554093 5.330905 -1.3588233 3
21.305458 8.3795624 -1.600911 5
4.4134841 1.7358493 -1.6025056 6
4.7971673 1.8867542 -1.6085237 5
5.1848645 2.0392377 -1.5975943 4
5.5564785 2.1853957 -1.5630679 6
6.1413531 2.4154303 -1.5636531 2
7.030951 2.7653146 -1.6059101 6
7.9599729 3.1307044 -1.6115639 8
8.6885986 3.3857992 -1.532039 6
10.404217 4.0543466 -1.569316 6
12.439874 4.8476071 -1.5612978 9
13.659836 5.3230057 -1.367741 3
20.883667 8.13801 -1.5672884 5
4.6749887 1.8217636 -1.5656297 4
5.1840796 2.0201478 -1.595389 4
5.5254583 2.1531773 -1.5524313 6
6.1416574 2.3932993 -1.5618086 5
7.0013247 2.7282972 -1.5971777 6
7.9752631 3.1078243 -1.6126748 8
8.7017021 3.3629432 -1.5326874 6
10.422887 4.0281291 -1.5704293 6
12.495979 4.8293157 -1.5666407 6
13.737802 5.3092427 -1.3740577 3
20.893284 8.0746183 -1.5663118 5
4.8332109 1.867889 -1.6168643 5
5.1843214 2.0035825 -1.5937352 4
5.5152078 2.13146 -1.5478729 6
6.1501327 2.3768392 -1.5622698 5
8.0077429 3.094749 -1.6174887 8
8.7171688 3.3392289 -1.5336602 6
10.442191 4.0000219 -1.5715429 6
12.523238 4.797195 -1.5682669 9
13.693987 5.2456656 -1.3681126 3
20.911562 8.0104551 -1.5658934 5
4.8797379 1.8692492 -1.6305665 5
5.1938338 1.989568 -1.5948378 4
5.6985707 2.1829143 -1.5975101 8
6.1462531 2.3544049 -1.5595031 8
6.6095357 2.5318716 -1.5044491 11
8.0003719 3.0646503 -1.6141561 8
8.7283058 3.3155756 -1.5339845 6
10.451468 3.9701445 -1.5712645 6
12.484589 4.742455 -1.5617625 9
13.710443 5.2081137 -1.3682983 3
21.086786 8.0101271 -1.5773335 5
4.9170642 1.8678195 -1.6412899 5
5.213747 1.9805187 -1.5992479 4
5.6322966 2.1395109 -1.57725 8
6.1582613 2.3393066 -1.5608864 5
7.1231561 2.7058361 -1.6196322 7
8.01441 3.0443919 -1.6152669 8
8.7467651 3.2946639 -1.5356055 6
10.468076 3.9430342 -1.5720994 6
12.508938 4.7117701 -1.5631561 9
15.74128 5.9293036 -1.5693165 4
22.096752 8.3232346 -1.6511358 5
4.9615684 1.8688854 -1.6543964 5
5.2192578 1.9659498 -1.5992479 4
5.6020374 2.1101322 -1.56712 8
7.1782842 2.7038608 -1.6304437 7
8.05231 3.033082 -1.6211919 8
8.7681665 3.2713101 -1.537551 6
10.504534 3.9191303 -1.5757179 6
12.503205 4.6648135 -1.5606009 9
13.838124 5.162858 -1.3779591 6
21.072262 7.8618379 -1.5727295 5
4.4451714 1.6584464 -1.6031458 6
4.9602594 1.8506204 -1.6520135 5
5.2200041 1.9475284 -1.5975943 4
5.6467066 2.1067264 -1.5777565 8
6.1629181 2.2993195 -1.5585808 5
7.0914326 2.6457386 -1.6088208 7
6.673357 2.489759 -1.3419825 3
8.8013287 3.2557144 -1.5417662 6
10.508005 3.8870339 -1.5746045 6
12.573938 4.6512465 -1.5678023 9
13.805796 5.106925 -1.3733145 3
20.369974 7.5350914 -1.5187379 5
4.4533386 1.647342 -1.6044263 6
4.929595 1.8235147 -1.6400983 5
5.1208415 1.8942591 -1.5656203 9
5.6434941 2.0875943 -1.575224 8
6.1711397 2.2827766 -1.5590419 8
7.0400796 2.6042078 -1.5955144 7
8.1273098 3.0063868 -1.6326714 8
8.8406 3.2404506 -1.5469542 6
10.525073 3.8578808 -1.5754397 6
12.615662 4.6241693 -1.5712868 9
13.69562 5.0200191 -1.3608669 3
20.429708 7.4883456 -1.5215281 5
4.5471587 1.6667244 -1.6364381 6
4.9313998 1.8075649 -1.638907 6
5.0993633 1.8691307 -1.5573511 5
5.4643693 2.0029206 -1.5235606 8
6.1596141 2.2577569 -1.5544306 5
7.0404291 2.5806127 -1.5938512 12
8.1435766 2.9849625 -1.6341524 8
8.84832 3.2135339 -1.5466299 6
10.555088 3.8333981 -1.578223 6
12.586381 4.5711236 -1.5659437 9
14.880286 5.4042244 -1.4769819 7
21.237581 7.7130675 -1.5799842 5
4.5627689 1.657107 -1.6402794 6
4.9205899 1.7870605 -1.6335452 6
5.2819767 1.918309 -1.611376 4
5.5012035 1.9979278 -1.5321712 8
6.1040921 2.2168851 -1.5387527 5
7.0480542 2.5597134 -1.5938512 12
8.1025181 2.9426734 -1.6241542 8
8.8832541 3.1981726 -1.5511693 6
10.563887 3.8032384 -1.5779448 6
12.548632 4.5177917 -1.5596716 9
15.575444 5.6075125 -1.5444216 7
21.118248 7.6030474 -1.5695207 5
4.4978509 1.6193281 -1.6153102 6
4.9147825 1.769433 -1.6299707 6
5.3072104 1.9107158 -1.6174401 4
5.3119764 1.9124317 -1.4779755 6
6.1377244 2.2097199 -1.5456694 8
7.0975089 2.555264 -1.6034151 12
8.0718689 2.9060557 -1.6163779 8
8.9335995 3.1863849 -1.5583025 6
10.578857 3.773206 -1.5785015 6
12.533918 4.4705257 -1.5561872 12
15.625777 5.5733123 -1.5477655 11
4.9128189 1.7522759 -1.6275877 6
5.2784519 1.8826878 -1.6069659 5
5.4160352 1.9317602 -1.5053266 10
6.1937461 2.2091496 -1.5581197 8
7.1603384 2.5539083 -1.6158898 10
8.0489874 2.8708663 -1.6100826 8
8.960516 3.1695688 -1.561545 6
10.584964 3.7441783 -1.5779448 6
12.423849 4.3946404 -1.5410875 12
13.684101 4.8404241 -1.3541788 3
22.623739 8.0026083 -1.6780617 5
4.8795905 1.7260388 -1.615077 7
5.2706747 1.8643754 -1.603107 7
5.5961819 1.9795158 -1.5539508 10
7.203886 2.5482028 -1.6242063 10
8.0768566 2.8569953 -1.6141561 8
8.9667034 3.1400998 -1.5608964 6
10.592936 3.709599 -1.577388 6
12.448842 4.359529 -1.5424814 12
13.896581 4.8665209 -1.3736861 3
17.720947 6.2057967 -1.3129563 4
4.8831868 1.7100704 -1.6144812 7
5.2474737 1.8376421 -1.5942866 7
5.5841122 1.9555314 -1.5488858 8
7.2321653 2.5326722 -1.6287804 10
8.1024857 2.8374546 -1.6174887 8
8.9940834 3.1215162 -1.5641389 6
10.601383 3.6793511 -1.5771097 6
13.82358 4.797657 -1.3651401 6
22.63879 7.8570924 -1.6756901 5
4.9041767 1.7020597 -1.6198429 7
5.1890168 1.8009173 -1.5749919 11
5.7175012 1.9843348 -1.584341 8
6.1829958 2.1458907 -1.5507418 8
7.2539954 2.5175955 -1.6321069 10
8.063961 2.7987046 -1.6082313 8
8.9945116 3.0900404 -1.5625176 6
10.60727 3.6440995 -1.5762746 6
11.766229 4.0422564 -1.4549037 2
13.842349 4.7555017 -1.3655115 3
21.382166 7.3457856 -1.5809608 5
4.9004717 1.6835439 -1.6168643 8
5.1982856 1.7858571 -1.5760945 11
5.6230659 1.9317893 -1.5564834 17
6.2651677 2.1523817 -1.5696476 8
7.3136725 2.5125928 -1.64375 10
8.1173229 2.7886846 -1.6171185 8
9.0263214 3.0763273 -1.5667328 6
10.599272 3.612416 -1.5737696 6
12.357073 4.2115049 -1.5266849 12
15.6163 5.3223062 -1.5392196 11
4.8395138 1.6493905 -1.5954173 13
5.2827024 1.8004369 -1.6003506 9
5.6955304 1.9411358 -1.575224 8
6.3183031 2.1533875 -1.5816367 12
7.3401604 2.5016541 -1.648324 9
8.1762028 2.786592 -1.6274869 8
9.0733404 3.0605724 -1.5732176 6
10.584294 3.5702395 -1.5698727 6
13.508295 4.5565486 -1.3300269 3
23.298208 7.8588309 -1.7193575 6
4.9514065 1.6701828 -1.6305665 10
5.521935 1.8626306 -1.5255867 10
6.3324127 2.1360166 -1.5834812 12
7.2793965 2.4554484 -1.6329386 13
8.1849155 2.7608933 -1.6274869 8
9.067935 3.0270553 -1.5706238 9
10.522192 3.5125148 -1.5590172 6
15.677762 5.2335458 -1.5420063 11
20.408381 6.8127193 -1.5045077 5
4.8733239 1.6268115 -1.6031621 17
5.2392015 1.7489487 -1.5838124 6
5.5424418 1.8501762 -1.5296388 19
6.3649349 2.1247408 -1.5899369 12
7.1237783 2.3780575 -1.5963461 12
8.1711779 2.7277 -1.6230434 8
9.0528231 2.997442 -1.5667328 10
10.620991 3.5166714 -1.5723778 6
12.608331 4.1746912 -1.5531672 12
15.200887 5.0331016 -1.4938883 7
20.667402 6.8430958 -1.5223653 5
4.9026594 1.6232988 -1.6115025 11
5.327414 1.7639375 -1.609171 9
6.3553286 2.104286 -1.5862478 12
7.1574254 2.3698649 -1.6025834 10
8.1591616 2.7015452 -1.6193403 8
10.639516 3.4857562 -1.5734912 6
12.591181 4.1251678 -1.5494505 18
13.526729 4.431675 -1.3279833 3
4.742631 1.5537978 -1.5572892 14
5.1009035 1.6711763 -1.5391591 20
5.6133637 1.8390703 -1.5463533 8
6.3600583 2.0837052 -1.5857867 12
7.2336206 2.3699045 -1.6179689 10
8.1638727 2.6746774 -1.6185998 10
9.1441784 2.965831 -1.5793782 9
10.619668 3.4443929 -1.5690376 14
12.353943 4.0068889 -1.5187865 12
23.253771 7.5421495 -1.7094522 6
4.7581177 1.5432522 -1.5608637 14
5.1954484 1.6850965 -1.5661715 11
5.7917953 1.8785162 -1.5939646 8
6.3773203 2.0684259 -1.5885534 12
7.2536469 2.3526545 -1.6208798 12
8.1736422 2.6510465 -1.61897 8
9.1556683 2.9430904 -1.5800266 10
10.530602 3.3850634 -1.5545636 27
12.366282 3.9751427 -1.519019 12
13.566435 4.3609319 -1.3294694 3
23.282932 7.4843016 -1.7101496 6
4.716701 1.516184 -1.54597 13
5.3243017 1.7114973 -1.6036582 9
5.7985353 1.8639399 -1.5944711 8
6.3567753 2.0433862 -1.5820979 12
7.270956 2.3372495 -1.6233747 13
8.1487455 2.619415 -1.6126748 10
9.0915194 2.8909905 -1.5673813 15
10.686515 3.3981791 -1.5759963 11
12.369244 3.9332659 -1.5178574 12
14.902777 4.7388983 -1.4589608 3
18.140455 5.7684398 -1.3310931 12
4.5701342 1.453246 -1.6204321 7
4.8815508 1.5522726 -1.5983959 20
5.3699584 1.7075802 -1.6157863 9
5.8006744 1.8445425 -1.5934581 8
6.3687267 2.025176 -1.5834812 12
7.2391114 2.3019476 -1.6146423 15
8.2056322 2.6092892 -1.6223027 10
9.2012072 2.8975992 -1.5848902 10
10.699741 3.3695099 -1.576553 9
12.336599 3.8849816 -1.5125145 12
14.919752 4.6984553 -1.4593325 3
18.240225 5.7441225 -1.3372315 4
4.5922475 1.4461681 -1.6268345 7
4.9441409 1.5569845 -1.61746 11
5.4242172 1.7081679 -1.6306707 9
5.8150306 1.831241 -1.5959907 8
6.3947763 2.0138116 -1.5885534 12
7.2753673 2.2911229 -1.6212955 12
8.209137 2.5851812 -1.6215621 8
9.2130318 2.8730698 -1.5855389 12
10.656169 3.3231101 -1.5687593 14
11.509196 3.5891252 -1.4098372 11
15.613393 4.8690128 -1.525843 22
22.139801 6.9042635 -1.6216985 11
4.540194 1.4158525 -1.6069874 6
4.9375334 1.5397623 -1.6138854 11
5.4564962 1.7016001 -1.6389397 7
5.8275099 1.8173001 -1.5980166 8
6.4022326 1.9965265 -1.5890145 12
8.2407169 2.569855 -1.6263762 10
9.2403736 2.8515384 -1.5887811 15
10.700047 3.3019869 -1.5737696 14
12.372059 3.8179624 -1.5141406 12
15.869428 4.8972349 -1.5494375 15
15.81754 4.8812227 -1.1575389 3
4.5751534 1.411872 -1.6178713 6
4.9439049 1.5256671 -1.6144812 12
5.4707069 1.6882359 -1.6416962 9
5.8254814 1.7977178 -1.5959907 8
6.4155669 1.9798155 -1.5908591 12
7.1239433 2.1984172 -1.584703 25
8.2764759 2.5540838 -1.6319306 10
9.2681627 2.8282571 -1.5920236 16
10.91495 3.3307879 -1.6038309 22
12.395391 3.7825568 -1.5155344 15
15.534279 4.7404141 -1.5152533 30
21.101492 6.4392958 -1.5427341 5
15.909643 4.85496 -0.7757073 3
4.6085625 1.4063411 -1.6281151 6
4.9121513 1.4989839 -1.6025661 18
5.0677662 1.546471 -1.5193131 14
5.8366513 1.7811027 -1.5975101 8
6.3417153 1.9352272 -1.571031 11
6.8819561 2.1000862 -1.5293986 10
8.2825785 2.5274978 -1.6315603 10
9.2741365 2.8017907 -1.5916994 18
11.085362 3.3489769 -1.6274903 8
12.447743 3.7605629 -1.520645 27
15.869617 4.7943387 -1.5466509 15
23.334848 7.0496445 -1.7045692 5
4.5743823 1.3819575 -1.61467 7
4.9473886 1.4946457 -1.6126939 20
4.7923293 1.4478011 -1.4355195 9
6.2874813 1.8994985 -1.5562752 11
6.713634 2.0282426 -1.4907269 11
8.2670288 2.4975357 -1.6271167 10
9.3405371 2.7934124 -1.6017507 12
10.942871 3.2726119 -1.6052227 16
12.914957 3.8623903 -1.5763973 12
17.801598 5.3238058 -1.2992841 3
5.0173922 1.5005182 -1.6341408 13
5.3655062 1.6046263 -1.6058633 11
5.1903057 1.5522302 -1.4182081 7
6.3486962 1.8986624 -1.5701088 11
6.7155218 2.0083666 -1.4898953 20
8.2250109 2.4597995 -1.6174887 12
9.1879253 2.7181005 -1.5741903 27
10.971525 3.24575 -1.6080061 16
12.884453 3.8116589 -1.5712868 12
14.587017 4.3153353 -1.4192032 3
21.262926 6.2902961 -1.5505469 5
5.0401297 1.4910417 -1.6400983 13
5.3333726 1.5777929 -1.5948378 9
5.9166064 1.7503332 -1.6152377 13
6.3878927 1.8897556 -1.5784088 12
8.2002344 2.4259081 -1.6111937 16
9.407609 2.7545455 -1.6105052 13
11.090788 3.2473798 -1.6241503 13
13.020869 3.8125072 -1.5866187 13
14.411721 4.219748 -1.4009963 10
24.728855 7.240602 -1.8018098 6
5.0277839 1.4721338 -1.6347368 12
5.2104483 1.525618 -1.5567999 15
5.8954749 1.7261935 -1.6081467 11
6.3165689 1.8494897 -1.5595031 11
7.0198627 2.055414 -1.5547637 13
8.2390413 2.4123893 -1.6174887 16
9.3474979 2.7068555 -1.5988326 21
10.927259 3.164324 -1.5988208 50
12.324231 3.5688603 -1.5004348 12
14.450957 4.1847191 -1.4035972 10
22.170763 6.4202261 -1.6140252 5
5.0633054 1.4662358 -1.6448644 12
5.2685056 1.5256578 -1.5727868 12
5.9172969 1.7135354 -1.6127052 11
6.2995968 1.8242421 -1.5539696 11
6.8060775 1.970909 -1.5061125 15
8.1970797 2.3737164 -1.6078608 16
9.3668728 2.6823709 -1.6007781 24
11.012759 3.1537001 -1.6099546 19
12.185809 3.4896238 -1.4823153 5
24.93442 7.1404157 -1.8136684 6
4.6230655 1.3238972 -1.6249138 12
5.0823169 1.455412 -1.6496304 11
5.3450899 1.5306618 -1.5942866 11
5.8981748 1.6890476 -1.6061207 11
6.3218203 1.8103659 -1.5581197 11
6.8513894 1.9620175 -1.5148447 19
8.2834444 2.372112 -1.6234137 12
9.4308224 2.6739912 -1.6105052 18
10.859016 3.0789378 -1.5862951 19
13.05682 3.7020974 -1.5870832 13
14.920491 4.2305179 -1.446885 14
17.378824 4.927547 -1.2631503 3
5.0897832 1.4431441 -1.6508219 10
5.3083873 1.5051265 -1.5821584 15
6.3901963 1.8118598 -1.5737977 11
6.8565021 1.9440751 -1.5148447 23
8.2915163 2.3509555 -1.6237839 14
9.2510395 2.5916417 -1.5784054 100
10.750394 3.0116799 -1.5690376 26
15.18107 4.2529159 -1.4708511 10
22.537174 6.3136988 -1.6366265 5
15.722928 4.4047151 -0.76145273 3
4.6287889 1.2967367 -1.6242737 9
5.107161 1.4307506 -1.6549922 11
5.2094197 1.459398 -1.5512872 16
6.418345 1.7980735 -1.5793312 12
6.9040194 1.9341334 -1.5239929 9
8.2988625 2.324893 -1.6237839 12
9.1308165 2.5304854 -1.5566813 30
10.609893 2.9403918 -1.5473267 78
13.126417 3.6378133 -1.5928907 13
17.432753 4.8312573 -1.2649639 7
4.9837408 1.381178 -1.482929 34
5.4537311 1.5114295 -1.481521 8
6.3258185 1.7531171 -1.5553529 11
8.2901697 2.2975111 -1.6208216 14
9.1873322 2.5185449 -1.5651115 31
11.026815 3.0228066 -1.6068927 17
12.65183 3.4682755 -1.5341184 25
15.181538 4.1617503 -1.4686216 17
24.9888 6.8502383 -1.8118546 6
4.6030664 1.2618493 -1.6127493 10
4.7136731 1.2921702 -1.5251188 15
5.4381285 1.4907668 -1.6168888 10
5.8124623 1.5933838 -1.5777565 19
6.3757339 1.7477947 -1.5664197 11
8.3287754 2.2831867 -1.6271167 12
9.2690554 2.5114 -1.577757 30
10.905748 2.9548531 -1.5879653 30
12.598795 3.4135749 -1.5264525 27
15.24956 4.1317854 -1.4740094 14
20.620356 5.5869732 -1.4939046 14
27.306698 7.3986015 -1.3193359 10
4.6195922 1.2516534 -1.6172309 9
4.9054489 1.3291048 -1.5858853 11
5.9086704 1.6009221 -1.6025751 10
6.4428792 1.745663 -1.5816367 12
8.3431025 2.2605183 -1.628598 12
9.5933733 2.5669508 -1.6315809 16
10.936021 2.9262102 -1.591027 27
12.248693 3.2774487 -1.4827799 8
15.633737 4.1832032 -1.5098658 18
21.135056 5.655221 -1.529899 5
4.6344838 1.2400738 -1.6210724 9
5.1567402 1.3798168 -1.6657157 11
4.8138323 1.288063 -1.4289041 9
5.9136705 1.5823528 -1.6025751 10
6.4539709 1.7269238 -1.58302 12
7.4458623 1.9923295 -1.6383443 16
8.3425674 2.2322659 -1.6271167 12
9.6119528 2.5431769 -1.6335264 13
11.149019 2.9498613 -1.6208102 16
15.797441 4.1797633 -1.5245426 37
21.249134 5.6221986 -1.5370141 5
4.5848088 1.213071 -1.6025056 9
5.1291962 1.3571075 -1.6555879 10
4.7579374 1.2588781 -1.4112633 13
5.8843989 1.5569227 -1.5934581 14
6.4945149 1.7183502 -1.5917813 12
7.4438324 1.9695251 -1.636681 18
8.3506689 2.2094603 -1.6274869 12
9.6243048 2.5195048 -1.6344992 14
11.202685 2.9327023 -1.6274903 13
12.712081 3.3278406 -1.5366738 18
16.054913 4.2029457 -1.5483229 15
15.745656 4.1219869 -1.1381465 3
52.836788 13.831913 -1.2680522 31
4.6008 1.2044234 -1.6069874 10
5.0422297 1.3199834 -1.6263962 18
4.7370381 1.2400887 -1.4040968 14
5.8828392 1.540043 -1.5919386 14
6.4952254 1.7003568 -1.5908591 12
7.4508553 1.950527 -1.6370969 18
8.358326 2.1880898 -1.6278574 14
9.6326065 2.4875777 -1.6344992 16
11.197008 2.8915775 -1.6252636 13
13.184654 3.4048784 -1.5924262 13
15.845101 4.0919266 -1.526772 26
24.656895 6.3675332 -1.7807434 12
4.6157756 1.1920035 -1.6108286 9
4.9911222 1.2889351 -1.6085237 20
5.3982172 1.3940656 -1.5986967 9
5.9047737 1.5248815 -1.5964972 12
6.5215559 1.6841627 -1.5959314 12
7.4042459 1.9121135 -1.6254537 16
8.3655357 2.1603625 -1.6278574 12
11.171919 2.8539224 -1.6205318 14
13.112686 3.3497014 -1.5826695 16
15.714913 4.0144529 -1.5132098 26
24.706337 6.3113575 -1.7831149 6
27.488432 7.0220575 -1.3230625 11
52.867558 13.505282 -1.2668452 31
4.6262236 1.1817919 -1.6133896 9
4.9815302 1.2725569 -1.6043534 18
5.4577293 1.3942043 -1.615235 10
5.9612336 1.522827 -1.6106791 9
6.5561113 1.6747915 -1.6033093 12
7.4149122 1.8941765 -1.6267012 13
8.3635454 2.1365094 -1.6263762 12
9.4813643 2.3938742 -1.6066145 22
11.229772 2.8353155 -1.6277686 13
12.442104 3.1414077 -1.5006672 27
15.973203 4.0329466 -1.5369902 15
20.586138 5.1976295 -1.4846967 9
4.6129723 1.1646926 -1.6076275 9
4.9369364 1.2464876 -1.588864 19
5.4765143 1.3827214 -1.6196452 10
6.5551023 1.6550455 -1.601926 12
7.4505219 1.8811228 -1.6333544 13
8.3504248 2.1083322 -1.6226732 14
9.665019 2.4079719 -1.6364447 14
11.211719 2.7933214 -1.6238718 16
14.552036 3.6255381 -1.3991385 6
20.524925 5.1136417 -1.4791162 14
4.6147699 1.1497377 -1.6069874 12
5.0075202 1.2475886 -1.6103109 22
5.4435215 1.3562154 -1.6086197 10
5.972044 1.487893 -1.6111858 9
6.5923719 1.6424434 -1.6097649 12
7.5304275 1.8761532 -1.6495715 13
8.377984 2.087316 -1.6267464 14
9.680871 2.3850179 -1.6380658 14
11.17861 2.7540069 -1.6180266 21
12.828391 3.1604536 -1.5450367 28
14.646555 3.6083837 -1.4073129 6
20.54793 5.0622697 -1.4798138 14
52.484127 12.930199 -1.2549614 30
4.6140847 1.1367443 -1.6057068 12
4.8995428 1.2070709 -1.574566 13
5.4078526 1.3323001 -1.5970429 10
5.9796758 1.4731767 -1.6121987 11
6.5720849 1.619125 -1.6037704 12
7.567605 1.8643852 -1.6566405 13
8.3433447 2.0554996 -1.61897 18
9.69174 2.3572185 -1.6387143 16
11.125149 2.7058511 -1.6091195 24
13.034591 3.1702642 -1.5687314 34
14.643651 3.5616188 -1.4060124 6
20.609386 5.0126009 -1.4831622 19
4.6229606 1.1243932 -1.6076275 13
4.8455939 1.178542 -1.5560979 13
5.4117818 1.3162498 -1.5970429 11
5.9821405 1.4549721 -1.6116922 9
6.5295844 1.5881211 -1.5922424 15
7.6054182 1.8497846 -1.6637096 14
8.2004471 1.9945071 -1.5900862 28
9.7006102 2.3289099 -1.6390386 16
11.127353 2.6714401 -1.6082845 27
12.897141 3.0963285 -1.5510765 12
14.673519 3.5227993 -1.4078703 6
20.626108 4.951889 -1.4833018 14
15.783857 3.7893677 -0.75698072 3
4.8212228 1.1574727 -1.5471615 14
5.4343572 1.3046733 -1.6025556 11
5.9845505 1.4367629 -1.6111858 9
6.4207273 1.5414798 -1.5645753 14
7.666038 1.8404523 -1.6757684 16
8.385973 2.0132933 -1.6248949 16
9.7185974 2.3045452 -1.6409841 16
11.155967 2.6453848 -1.6113464 29
13.044903 3.0933032 -1.5678023 31
14.929377 3.5401635 -1.4314649 3
20.581617 4.8804641 -1.4791162 14
15.745781 3.7337554 -0.75465161 3
4.6772938 1.1091143 -1.6242737 12
4.8894553 1.1594236 -1.5680128 40
5.449203 1.2921551 -1.6058633 11
5.9546518 1.4120108 -1.6020687 10
6.4420495 1.5275861 -1.5687253 14
7.7035074 1.8267124 -1.6828375 16
8.4221611 1.9971247 -1.6308198 17
9.6911983 2.2659161 -1.6351477 21
11.256791 2.6319702 -1.624707 19
13.064227 3.05457 -1.5689636 31
13.604415 3.1808722 -1.3034598 3
17.32723 4.0513101 -1.244316 3
16.181522 3.7834303 -0.77496201 3
52.22308 12.21037 -1.2451664 29
4.7194996 1.1034746 -1.6377184 12
5.0176311 1.1731812 -1.6079279 33
5.4457474 1.2732798 -1.6036582 12
5.9816661 1.3985839 -1.6081467 9
6.4847164 1.516203 -1.5779477 24
7.7053976 1.8016125 -1.6820056 14
8.4130831 1.9670777 -1.6278574 14
9.7417173 2.2490525 -1.6426053 16
11.254449 2.598294 -1.6233152 19
13.022382 3.0064535 -1.5629239 31
15.923247 3.6761711 -1.1427505 6
4.7244096 1.0907158 -1.6383586 13
5.0952988 1.1763424 -1.631758 25
5.4436622 1.2567683 -1.6020044 12
5.2804794 1.2190946 -1.4187146 9
6.5116806 1.5033398 -1.5834812 15
7.5274081 1.737839 -1.6420866 33
8.3764124 1.933847 -1.6197106 16
9.7017794 2.2113154 -1.6348234 26
11.315728 2.579181 -1.6311089 14
12.986181 2.9599254 -1.5575809 28
15.078136 3.4367423 -1.4427977 10
15.974302 3.6410043 -1.1456804 6
5.1730227 1.1790811 -1.6555879 12
5.4958863 1.2526711 -1.6163375 12
5.8648806 1.3367755 -1.5747175 10
6.5006733 1.4816911 -1.5797923 15
7.4292336 1.6933367 -1.6196322 31
8.4105244 1.9170012 -1.6252652 16
9.7645187 2.1933661 -1.6442263 16
11.317979 2.5423136 -1.6302738 14
12.607782 2.8320372 -1.5111207 33
15.193777 3.412919 -1.45283 14
24.564426 5.5178113 -1.7605139 18
15.527783 3.4879456 -0.74216723 10
53.10994 11.929879 -1.2637814 31
5.1971927 1.1674252 -1.6621412 10
5.5354352 1.2434032 -1.6268119 11
5.731245 1.2873873 -1.5377429 10
6.5527668 1.4719225 -1.5913202 15
8.4318466 1.8940129 -1.6282277 14
11.315366 2.5085564 -1.6288821 14
13.294424 2.9473033 -1.5924262 16
23.42662 5.1935573 -1.6779222 5
5.21348 1.1558008 -1.6663115 11
5.5219927 1.2241964 -1.6218503 13
88.732925 19.671619 8.4793625 63
5.9388227 1.3166054 -1.592445 8
6.6214509 1.4679404 -1.6069982 12
6.4479012 1.4294654 -1.4038199 1
8.4351835 1.8700354 -1.6278574 14
9.7843294 2.1404824 -1.6455234 14
11.316525 2.4756751 -1.6280471 16
12.388596 2.7102082 -1.4830122 2
25.703863 5.6231413 -1.8398968 6
4.7144489 1.0313629 -1.6306759 12
5.2148228 1.1408279 -1.6657157 10
5.5498056 1.214111 -1.6290169 13
5.2941723 1.1581869 -1.4187146 9
6.5323682 1.4290626 -1.5844034 18
8.4499731 1.8485701 -1.6297088 17
9.4916105 2.0469611 -1.595266 30
11.331561 2.4437649 -1.6291604 14
12.340267 2.6613026 -1.4762756 2
15.491038 3.3407979 -1.4784682 3
25.640467 5.529624 -1.8341767 6
52.224934 11.262832 -1.2403849 29
4.6804438 1.0093846 -1.6178713 12
5.1715255 1.1152915 -1.6508219 13
5.5402274 1.1948056 -1.625158 15
8.4477348 1.8218389 -1.6282277 16
9.4976435 2.0187871 -1.595266 33
11.334889 2.4093058 -1.6286038 14
12.326736 2.6201296 -1.4737202 11
15.62944 3.3221414 -1.4907298 18
27.342884 5.8119116 -1.954716 7
50.122547 10.65388 -2.389637 23
53.875546 11.451605 -1.2787756 32
4.6815648 0.99509764 -1.6172309 12
5.1468 1.0939865 -1.6418856 16
5.5230622 1.1739635 -1.6190939 19
6.0333571 1.2824302 -1.6147312 11
5.1987023 1.1050187 -1.2593149 3
8.4646387 1.7992151 -1.6304495 17
9.0435352 1.8958807 -1.5180966 79
11.335758 2.3764207 -1.6277686 16
12.339838 2.5869155 -1.474417 11
15.743903 3.3005414 -1.5007622 21
22.723345 4.7637067 -1.6235121 5
52.735126 11.055357 -1.2509692 30
5.1479669 1.0792164 -1.6412899 16
5.4661083 1.1459113 -1.6014532 22
5.27946 1.1067824 -1.41213 9
5.1865301 1.0873008 -1.2556258 3
7.6567812 1.6051626 -1.6628778 10
8.4677067 1.7751644 -1.6300793 17
9.0758514 1.8762141 -1.5226359 79
11.313256 2.3387439 -1.6235934 17
12.343123 2.5516441 -1.4739524 11
15.474191 3.1989172 -1.4741951 3
27.335842 5.6510286 -1.9519258 14
49.940624 10.324023 -2.3781774 23
5.1509604 1.0648373 -1.6412899 16
5.4128051 1.1189674 -1.5849149 21
5.1934776 1.0736266 -1.3883245 3
5.1933579 1.073602 -1.2565482 1
7.6286654 1.5770432 -1.6558088 16
8.455308 1.7479317 -1.6267464 18
8.9070139 1.815396 -1.4934543 13
11.28093 2.2992389 -1.6180266 26
12.346306 2.5163803 -1.4734879 11
24.659567 5.0260248 -1.7598163 18
53.573833 10.919229 -1.2693985 31
5.123981 1.0443516 -1.631758 15
5.4347458 1.1076906 -1.5904276 20
5.1983504 1.0595093 -1.3888309 3
5.2039628 1.0606532 -1.2583926 1
7.6215372 1.5533946 -1.6533139 22
8.4678593 1.7258888 -1.6282277 16
9.4157772 1.8882929 -1.577757 27
11.29004 2.2641683 -1.6183048 26
15.830682 3.1747739 -1.5063359 10
24.745661 4.9626341 -1.7648388 18
53.454967 10.72016 -1.2657776 31
5.1103902 1.0248665 -1.6263962 15
5.3571453 1.0743521 -1.5667229 20
5.3885417 1.0806485 -1.3021989 1
7.7587295 1.5559794 -1.6820056 21
8.4770937 1.7000442 -1.6289682 17
9.8844204 1.9499978 -1.6552505 16
11.347618 2.2386572 -1.6255419 17
13.560449 2.6752043 -1.6163532 13
15.944123 3.1454554 -1.5161823 37
24.714149 4.8756056 -1.7614905 18
5.0761223 1.001417 -1.6144812 23
5.2642994 1.0385406 -1.5386078 20
87.412315 17.244696 8.3123426 63
5.8009453 1.14441 -1.5478729 17
5.4778295 1.0806658 -1.3229492 1
7.6330676 1.505851 -1.6537298 24
8.4785366 1.6726451 -1.6282277 16
8.9596262 1.7431993 -1.4996148 7
11.332055 2.204783 -1.6224802 19
15.811564 3.0763233 -1.5028059 10
24.830626 4.8310866 -1.7688847 6
4.6608615 0.90682471 -1.6044263 12
5.3047428 1.0320992 -1.5496333 19
5.9520574 1.158042 -1.5873801 21
6.6592922 1.2956426 -1.6074593 12
7.581295 1.475029 -1.6416708 15
8.480957 1.6500686 -1.6278574 16
9.8987026 1.8972359 -1.6558992 13
11.203953 2.1474068 -1.6032742 35
13.627398 2.6118968 -1.6226254 13
16.267962 3.1180005 -1.5453504 34
22.355503 4.2847695 -1.5917032 10
49.757259 9.5367308 -2.3626184 22
52.60603 10.08274 -1.2435881 29
4.7024541 0.90129638 -1.6178713 12
5.1695952 0.99083096 -1.6424814 21
5.2924991 1.0143874 -1.5452231 21
87.308754 16.734041 8.2937641 63
6.5902538 1.2631217 -1.5899369 15
7.5815411 1.4531169 -1.6408392 13
8.4797401 1.6252704 -1.6267464 18
8.8747826 1.6720957 -1.4837271 6
11.148363 2.1004603 -1.5943671 32
13.623825 2.5668616 -1.6212316 13
16.551643 3.1184912 -1.5713601 12
22.611973 4.2603164 -1.6090028 5
4.7089868 0.88721901 -1.6191516 10
4.8950047 0.92226666 -1.5543106 96
5.3428917 1.006653 -1.5590049 18
6.5635905 1.2366445 -1.582559 15
7.6072168 1.4332739 -1.6454133 15
8.4963932 1.6008034 -1.6289682 17
8.9994316 1.6711974 -1.50383 21
11.138246 2.0683758 -1.5921404 26
13.605108 2.526473 -1.6182116 16
16.281733 3.0235229 -1.5449787 11
25.765516 4.7846646 -1.8325025 13
53.017082 9.8452892 -1.2519439 30
4.657269 0.8648563 -1.6005849 15
4.797915 0.89097434 -1.5227358 29
5.3284969 0.98950356 -1.5540435 20
5.9883757 1.1120433 -1.5944711 14
5.3996282 1.0027126 -1.3012766 1
7.6186366 1.4147832 -1.6470766 13
8.4986229 1.578197 -1.628598 17
9.0140591 1.6462585 -1.5054512 6
11.120955 2.0310457 -1.5888002 22
13.458168 2.4578965 -1.5998598 39
15.783264 2.8825343 -1.4968607 7
27.593105 5.0393929 -1.9614125 14
50.098015 9.1495161 -2.3749166 23
4.7306442 0.86396855 -1.6249138 13
4.9075918 0.89628488 -1.5566936 29
5.187675 0.94743717 -1.5121466 32
5.9383559 1.0845357 -1.580289 17
6.6393151 1.2125535 -1.5991592 15
7.6709127 1.4009566 -1.6574723 15
8.4916677 1.550853 -1.6263762 18
11.134729 1.9994426 -1.5899136 22
52.120098 9.3591089 -1.2294295 28
4.7630253 0.85528755 -1.6351576 12
4.964725 0.89150643 -1.5739703 31
5.5178242 0.99082536 -1.6075171 14
