# .PCD v0.7 - Point Cloud Data file format
VERSION 0.7
FIELDS x y z intensity
SIZE 4 4 4 4
TYPE F F F F
COUNT 1 1 1 1
WIDTH 1392
HEIGHT 1
VIEWPOINT 0 0 0 1 0 0 0
POINTS 1392
DATA ascii
21.513855 -1.489303 -1.5079955 5
27.583941 -1.9095063 -1.2894294 10
50.868523 -3.5213885 -1.1838435 23
4.858767 -0.33634955 -1.519757 15
5.393229 -0.37334788 -1.5501845 15
5.7789645 -0.40005052 -1.5164697 16
6.1544609 -0.42604434 -1.4617459 16
6.0754075 -0.42057186 -1.2944583 2
8.2468195 -0.57088852 -1.5574995 14
9.2654572 -0.66740716 -1.5262027 21
10.809487 -0.77862638 -1.5231105 14
12.807316 -0.92253351 -1.5015963 21
13.949127 -1.0047802 -1.3047602 9
19.969374 -1.4384291 -1.4000125 4
28.120504 -2.0255694 -1.3147707 10
50.980145 -3.6721895 -1.1866752 24
4.8654261 -0.35046518 -1.52214 13
5.407506 -0.38951218 -1.5545948 14
5.7836137 -0.41660389 -1.5179892 16
6.1338363 -0.44183099 -1.4571346 16
88.338715 -6.3631935 12.447365 63
6.0781121 -0.43781713 -1.29529 1
8.2569561 -0.59476304 -1.5597215 14
9.2752438 -0.69578111 -1.5281482 21
10.836756 -0.81291771 -1.5272858 13
12.782732 -0.95889491 -1.499041 18
13.84481 -1.0385666 -1.2952852 12
15.81683 -1.1864972 -1.1091279 2
27.389198 -2.0545969 -1.280858 10
51.044792 -3.829118 -1.1884392 24
4.8719797 -0.36547089 -1.524523 15
5.4216633 -0.40670532 -1.5590049 13
5.7842822 -0.43390712 -1.5184957 16
6.1130915 -0.45857272 -1.4525235 20
88.191078 -6.6156416 12.429273 63
8.2688742 -0.62028843 -1.5623136 16
9.2534618 -0.72176343 -1.5249057 22
10.861938 -0.84722346 -1.5311826 13
12.77389 -0.99635428 -1.4983441 21
21.267315 -1.6588354 -1.4916724 4
4.8880048 -0.3812609 -1.5298848 15
5.4050994 -0.4215939 -1.5545948 16
5.7713947 -0.45016471 -1.5154567 14
6.1893125 -0.48276198 -1.4709682 16
88.354691 -6.891603 12.455158 63
6.1027122 -0.47600722 -1.3011115 6
8.2513199 -0.64359713 -1.559351 14
9.0526037 -0.73312598 -1.4921573 85
10.881092 -0.88120633 -1.5342443 24
12.778797 -1.0348922 -1.4992733 18
19.591862 -1.5866489 -1.3744816 8
50.680374 -4.1043553 -1.1805011 23
52.173191 -4.2252512 0 47
4.9077854 -0.39745748 -1.5364381 15
5.3923273 -0.43669817 -1.5512872 18
5.76232 -0.46666208 -1.5134306 14
6.224709 -0.50410867 -1.4797295 16
88.351624 -7.1551647 12.457664 63
7.290719 -0.59043962 -1.5547637 16
8.2474155 -0.66791779 -1.5589807 14
9.2452192 -0.77471781 -1.5242572 25
10.864773 -0.91043085 -1.5322959 19
12.787735 -1.0715685 -1.5006672 18
21.199751 -1.7764668 -1.4876266 14
50.728493 -4.2508745 -1.1818937 23
4.9256816 -0.41275531 -1.5423956 14
5.3910866 -0.45175466 -1.5512872 15
88.901016 -7.4496017 8.3231182 63
5.7532825 -0.48210543 -1.5114046 14
6.2329736 -0.52230191 -1.4820352 15
6.0823245 -0.50967801 -1.297369 3
8.2416019 -0.6906181 -1.5582402 14
9.2410536 -0.80036199 -1.5239329 24
10.582002 -0.91650069 -1.4927708 50
12.8124 -1.1096741 -1.5039194 18
15.887275 -1.3759872 -1.4877573 14
20.560637 -1.7807442 -1.443122 4
24.744375 -2.143095 -1.1582505 8
50.899689 -4.408391 -1.1861646 24
4.9758658 -0.43095669 -1.5584807 15
5.3955498 -0.46730527 -1.552941 15
5.7442036 -0.49750194 -1.5093787 14
6.24894 -0.54121685 -1.4861851 15
6.0886726 -0.52733624 -1.2990323 1
8.2494316 -0.71447825 -1.5600917 12
9.1795235 -0.82409555 -1.5142057 37
10.667837 -0.95770949 -1.5052965 26
12.810828 -1.1500974 -1.5041517 24
20.61058 -1.8503234 -1.4470283 13
15.632076 -1.4033762 -0.73191887 3
50.797962 -4.5604081 -1.184122 23
5.0258293 -0.45119593 -1.574566 13
5.384481 -0.48339403 -1.5501845 16
5.740685 -0.5153724 -1.508872 14
6.2472091 -0.56084579 -1.4861851 15
7.217093 -0.64791751 -1.54021 10
8.2373581 -0.73951226 -1.5582402 14
9.2284288 -0.8528465 -1.5226359 28
10.832923 -1.0011261 -1.5289557 27
12.85129 -1.1876535 -1.5092622 18
15.464661 -1.4291686 -1.4489285 17
15.637022 -1.4450973 -1.0981064 8
15.845187 -1.4643351 -0.74207401 3
50.801777 -4.6948528 -1.1844933 23
5.0626531 -0.46786574 -1.586481 13
5.3812828 -0.49731192 -1.5496333 15
5.7643614 -0.53271419 -1.5154567 16
6.2340927 -0.57612449 -1.4834185 15
7.1822557 -0.6637491 -1.533141 9
8.2275658 -0.76035154 -1.5567589 14
9.2728548 -0.88634104 -1.5304178 19
10.879014 -1.0398649 -1.5359144 32
12.892978 -1.2323686 -1.5146053 18
15.838717 -1.5139356 -1.4844133 14
15.831013 -1.5131991 -1.1120577 5
32.840469 -3.1390395 -1.5384644 16
53.528034 -5.1164494 0 50
103.46747 -9.889884 4.8470988 63
5.0630589 -0.48394987 -1.5870767 12
5.2782621 -0.50452 -1.5204158 22
5.7857718 -0.55303001 -1.5215347 14
6.2361264 -0.59607691 -1.4843407 15
7.1528711 -0.68370348 -1.5273194 9
8.2681799 -0.79030967 -1.5649056 12
9.2800045 -0.91481829 -1.532039 19
10.077634 -0.99344814 -1.4231843 8
12.869495 -1.2686685 -1.5122821 24
13.713687 -1.3518885 -1.2856245 3
22.855139 -2.2530482 -1.6059335 16
32.836975 -3.2370529 -1.5387439 16
51.321342 -5.0592327 -1.1973058 25
5.2977877 -0.52225333 -1.5264797 16
89.458031 -8.8187284 8.3864708 63
5.7898822 -0.57076371 -1.5230542 14
6.224647 -0.61362261 -1.4820352 15
7.1255021 -0.70242846 -1.5219136 8
8.2579746 -0.81406701 -1.5634243 14
9.1833286 -0.9295699 -1.5164753 30
9.7597218 -0.98791456 -1.3786488 6
12.824626 -1.2981553 -1.5074039 27
21.402105 -2.166399 -1.5042286 10
27.668392 -2.8006954 -1.2968827 10
50.49231 -5.1110153 -1.178273 23
5.3097916 -0.53747642 -1.5303386 16
5.7999182 -0.58708876 -1.5260932 14
6.1978478 -0.62736869 -1.4760406 14
99.825829 -10.104733 14.101298 63
7.1275315 -0.72147465 -1.5227454 8
8.2792797 -0.83805883 -1.567868 14
9.1882153 -0.95923531 -1.5177724 33
12.925198 -1.3493705 -1.5197158 18
13.610604 -1.4209259 -1.2767068 6
22.444914 -2.343214 -1.5780309 21
31.458658 -3.2842348 -1.4750178 14
51.241634 -5.3495469 -1.1961453 25
53.071575 -5.5405898 0 49
4.8573608 -0.50710094 -1.5239272 12
5.2985163 -0.55315685 -1.5275823 18
5.8153634 -0.60711491 -1.5306517 14
6.197782 -0.64703876 -1.4765017 14
7.1446872 -0.74589419 -1.5269036 9
8.2746515 -0.86386073 -1.5674977 14
9.2720146 -0.99252927 -1.532039 19
12.937422 -1.3848953 -1.5215743 15
13.674159 -1.4637598 -1.2830235 9
22.672789 -2.4270244 -1.5944935 16
31.386385 -3.3597775 -1.4720365 14
51.14196 -5.4745269 -1.194149 24
5.3199892 -0.56948197 -1.5341977 18
5.8252974 -0.62357301 -1.5336907 14
99.938133 -10.697947 11.753755 63
6.2192879 -0.66574794 -1.4820352 15
8.2782249 -0.88614827 -1.5686086 14
9.286684 -1.0219784 -1.5349572 18
12.791089 -1.4076302 -1.5048485 39
15.831533 -1.7422241 -1.1137319 8
27.92886 -3.0735073 -1.3102988 10
51.266605 -5.6417732 -1.197445 25
53.43541 -5.8804455 0 50
5.346941 -0.58841866 -1.5424668 15
5.8099589 -0.63937277 -1.5301453 14
6.2559738 -0.68845564 -1.4912574 12
6.8798389 -0.7571106 -1.4711832 30
8.2696972 -0.91006136 -1.5674977 12
9.2875328 -1.0499713 -1.5356055 18
10.231632 -1.1567035 -1.4471221 53
12.881604 -1.4562873 -1.5159991 24
14.585351 -1.6488987 -1.369413 16
19.529604 -2.207855 -1.3743421 4
27.258553 -3.0816257 -1.2792742 10
51.448318 -5.8163199 -1.2020872 25
5.3451715 -0.60428071 -1.5424668 16
5.7926564 -0.65486968 -1.5260932 14
6.2597051 -0.70767027 -1.4926409 15
6.4382386 -0.72785383 -1.3772072 3
8.2435265 -0.93194461 -1.5630541 14
9.2685061 -1.0773209 -1.5330117 16
10.788626 -1.2540114 -1.5264506 22
12.928267 -1.5027118 -1.5220389 24
51.056412 -5.9345202 -1.1933599 24
5.3890791 -0.62639731 -1.5556973 16
5.780961 -0.67194754 -1.5235606 14
6.2323208 -0.72441119 -1.4866463 17
7.3550596 -0.85491222 -1.5738916 9
8.1897974 -0.95193774 -1.5534261 14
9.2815237 -1.1018261 -1.5356055 16
10.630157 -1.2619247 -1.5044613 61
12.912722 -1.532892 -1.520645 21
15.835868 -1.8799038 -1.115127 6
50.83725 -6.0349793 -1.1885785 24
5.3875322 -0.63956344 -1.5556973 16
5.7696958 -0.68493074 -1.5210283 14
6.2112064 -0.73734325 -1.4820352 20
6.2067823 -0.73681808 -1.3285558 2
8.1952543 -0.97287309 -1.5549074 16
9.2878113 -1.1321733 -1.5372268 15
10.23491 -1.2476236 -1.4490705 26
12.87432 -1.5693644 -1.5166959 21
20.085909 -2.4484487 -1.4149402 4
4.8819876 -0.59510851 -1.5346508 9
5.391221 -0.65718353 -1.5573511 16
5.7655945 -0.70281917 -1.5205216 17
6.233973 -0.75991398 -1.4880297 20
6.1422954 -0.74873859 -1.3152494 3
8.2136173 -1.0012304 -1.5589807 16
9.2826557 -1.1578612 -1.5369027 18
10.620517 -1.3247378 -1.5041831 27
12.836376 -1.6011304 -1.5127467 21
16.053347 -2.0023954 -1.5093083 21
20.187881 -2.5181117 -1.4226135 4
32.944626 -4.1093092 -1.5482469 17
50.780701 -6.3340712 -1.1881143 24
57.278141 -7.1445222 0 58
4.8992519 -0.61110246 -1.5406083 9
5.3741035 -0.67033249 -1.552941 16
5.7597694 -0.71843809 -1.5195087 14
6.1970654 -0.77298373 -1.4797295 19
6.2081246 -0.77436316 -1.3298033 1
8.2634478 -1.0307314 -1.5689789 14
9.2813435 -1.1840284 -1.5372268 19
9.838789 -1.2551422 -1.393958 8
12.743183 -1.6256582 -1.5022932 33
16.063494 -2.0492327 -1.5107945 21
20.867516 -2.6620855 -1.4710245 14
51.284443 -6.5423975 -1.2003231 25
54.956619 -7.0108595 0 53
4.9107828 -0.62647253 -1.5447786 9
5.3683963 -0.68485057 -1.5518384 16
5.7750139 -0.73672312 -1.5240672 14
6.1755781 -0.78782344 -1.4751183 19
8.2761345 -1.0557932 -1.5719415 14
9.2817039 -1.2120726 -1.5378753 16
9.6484547 -1.2599657 -1.367515 3
12.92149 -1.6873825 -1.5238973 21
15.838165 -2.0682631 -1.4901725 29
20.22646 -2.6413188 -1.4263804 9
16.200693 -2.1156049 -0.7619186 11
53.093216 -6.9332995 0 50
4.9410863 -0.64524311 -1.5549062 14
5.3625283 -0.7002781 -1.5507358 18
5.7900691 -0.75610948 -1.5286257 14
6.1867218 -0.80790728 -1.4783461 19
7.1754136 -0.93701792 -1.5381308 13
8.2866077 -1.0821258 -1.5745336 14
9.2798071 -1.2414876 -1.5381997 18
12.929908 -1.7298119 -1.5255234 18
15.888829 -2.1256676 -1.4955603 58
16.138458 -2.1590641 -1.1385652 6
32.95031 -4.408217 -1.5502967 17
51.400089 -6.8764977 -1.2039905 25
52.993862 -7.0897193 0 49
5.0468988 -0.67519319 -1.588864 12
5.3717351 -0.71865106 -1.5540435 19
5.7742414 -0.7724998 -1.5250802 14
6.1841531 -0.82733935 -1.4783461 19
7.1724343 -0.95955539 -1.5381308 13
8.2812204 -1.107893 -1.5741633 14
9.2256832 -1.2588407 -1.5297694 24
10.739954 -1.4654622 -1.5233889 29
12.64191 -1.7249833 -1.492072 48
15.758905 -2.1502962 -1.483856 54
16.08926 -2.1953728 -1.1354958 6
33.013878 -4.5047297 -1.5538369 17
51.366058 -7.0088773 -1.2036191 25
5.3679299 -0.73245186 -1.5534922 19
5.7626138 -0.7863062 -1.5225476 14
6.1800375 -0.84326351 -1.477885 19
7.1718364 -0.97859412 -1.5385467 16
8.2529745 -1.126115 -1.5693493 14
9.1615372 -1.2761581 -1.5197178 28
10.837824 -1.5096567 -1.5378629 16
12.829855 -1.787137 -1.5148375 39
15.984266 -2.2265315 -1.1285203 9
51.397774 -7.1594625 -1.204826 25
5.3525352 -0.74558234 -1.5496333 18
5.7853074 -0.80586547 -1.5291321 14
6.1930785 -0.86266607 -1.4815739 20
8.2322779 -1.1467167 -1.5660164 14
9.155529 -1.304655 -1.5193937 28
10.795774 -1.5383883 -1.5325743 19
12.576386 -1.7921242 -1.4855676 37
21.114622 -3.0088151 -1.4913934 14
51.270115 -7.3059468 -1.2023656 25
52.75705 -7.5178337 0 49
5.3235202 -0.75859702 -1.5419155 18
5.8229718 -0.82976842 -1.5397688 14
6.1980448 -0.88321596 -1.4834185 20
8.2150145 -1.1706324 -1.5634243 14
9.2670784 -1.3469654 -1.5385239 18
10.799275 -1.5696694 -1.5336877 19
12.502529 -1.8172367 -1.4774369 14
15.974048 -2.32182 -1.5059642 25
19.901766 -2.8927119 -1.4062905 4
48.957787 -7.1159906 -2.307091 21
50.926994 -7.4022141 -1.1947989 24
55.089127 -8.0071774 0 54
5.037025 -0.7321291 -1.5882683 12
5.3289914 -0.77456629 -1.5441206 16
5.8282909 -0.84713924 -1.5417948 14
6.2398496 -0.90695912 -1.4940242 17
7.4282489 -1.0796924 -1.5955144 15
8.2097692 -1.1932859 -1.5630541 14
9.2376633 -1.3706899 -1.5343087 22
10.820039 -1.6054837 -1.5373062 17
12.469573 -1.8502425 -1.4741848 17
14.688698 -2.1795175 -1.3853904 13
20.800915 -3.0864518 -1.4704665 9
48.863342 -7.250371 -2.3036439 21
51.084785 -7.5799899 -1.1990232 25
5.0027256 -0.74230731 -1.5781405 14
5.322866 -0.78980994 -1.543018 19
5.8391485 -0.86641622 -1.5453403 17
6.2352057 -0.92518342 -1.4935631 17
7.3766356 -1.0945494 -1.5851189 15
8.2489634 -1.2239859 -1.5712007 12
9.1379404 -1.383615 -1.5184208 28
10.817185 -1.6378767 -1.5375845 17
12.320651 -1.865523 -1.4572268 37
14.680197 -2.2227919 -1.3852047 16
20.939613 -3.1705573 -1.48093 4
15.632635 -2.3670046 -0.73732257 3
51.979362 -7.8704195 -1.2205629 27
55.364941 -8.3830442 0 55
4.9570837 -0.75057346 -1.5644382 16
5.3147964 -0.80473632 -1.5413642 19
5.8193345 -0.88113052 -1.5407817 17
6.2401299 -0.94484502 -1.4954076 15
7.2843795 -1.1029593 -1.565991 13
8.2258615 -1.2455132 -1.5674977 16
9.1615953 -1.4117413 -1.5229602 37
10.808946 -1.6655871 -1.5370278 17
12.461008 -1.920159 -1.474417 17
14.74518 -2.2721348 -1.3918929 33
21.012087 -3.2378237 -1.4866499 14
15.616511 -2.4064012 -0.7368567 7
50.604931 -7.7978854 -1.1887642 24
4.9381194 -0.76093161 -1.5590765 18
5.3487735 -0.82421064 -1.5518384 15
5.8017101 -0.89400524 -1.5367298 19
6.2549458 -0.96384579 -1.4995576 15
7.2273297 -1.1136838 -1.554348 15
8.2517109 -1.2715342 -1.5730523 12
9.2195005 -1.4503301 -1.5333359 27
9.8156395 -1.5441095 -1.396463 4
12.409781 -1.952197 -1.4690741 20
14.761575 -2.3221602 -1.3941222 10
22.614 -3.5574343 -1.6007717 16
17.274557 -2.7174804 -0.81548953 4
50.617706 -7.9627295 -1.1896461 24
98.393738 -15.478431 4.644927 63
4.9375901 -0.77673793 -1.5596722 14
5.3556538 -0.84250402 -1.5545948 15
5.7797604 -0.9092207 -1.5316647 14
6.2980266 -0.99074978 -1.5106245 13
7.2044697 -1.1333433 -1.5501897 13
8.1777802 -1.286456 -1.5597215 14
9.203723 -1.4741974 -1.5313904 30
9.8367128 -1.5755858 -1.4000815 6
12.453319 -1.9946982 -1.4748816 20
22.515326 -3.6063704 -1.5944935 16
50.591328 -8.1034164 -1.1895534 24
4.9372878 -0.79082525 -1.560268 14
5.3570766 -0.85806453 -1.5556973 15
5.7657361 -0.92352116 -1.5286257 14
6.2894707 -1.0074098 -1.5092411 15
7.2070723 -1.1543858 -1.5514371 13
8.1857996 -1.3111526 -1.5619433 14
9.1019201 -1.4856033 -1.5151784 54
9.0501261 -1.4771495 -1.288743 3
12.464989 -2.034519 -1.4769723 20
22.280054 -3.6365206 -1.578589 37
50.659809 -8.2686262 -1.1917351 24
52.860519 -8.6278238 0 50
4.9368038 -0.8057785 -1.5608637 13
5.360199 -0.87488455 -1.5573511 16
5.7324181 -0.93563765 -1.5205216 19
6.3114228 -1.0301421 -1.5152357 13
7.1939616 -1.1741889 -1.549358 13
8.2303667 -1.3433496 -1.5712007 14
9.0721626 -1.5083946 -1.5109633 55
10.790371 -1.7940747 -1.5373062 8
12.500048 -2.0783362 -1.4818506 43
22.351824 -3.7163544 -1.5844486 21
50.402306 -8.3802032 -1.1862574 24
53.730389 -8.9335508 0 51
4.8873072 -0.81259429 -1.54597 15
5.384131 -0.89519936 -1.5650691 15
5.7105303 -0.94946855 -1.5154567 20
6.3140979 -1.0498215 -1.5166191 13
7.1885157 -1.1952077 -1.5489422 13
8.2534876 -1.3722765 -1.5763849 12
8.7915974 -1.4869872 -1.4649211 67
10.804848 -1.827503 -1.5400897 11
12.50203 -2.1145599 -1.4827799 60
22.260706 -3.7651162 -1.5787286 21
51.127869 -8.6476307 -1.2038976 25
53.080116 -8.977828 0 50
4.8134851 -0.81413996 -1.5233315 16
5.3854012 -0.91087234 -1.5661715 15
5.7460108 -0.97186488 -1.5255867 14
6.3149791 -1.0680987 -1.5175412 15
7.1851506 -1.2152771 -1.5489422 13
8.2496233 -1.3953192 -1.5763849 12
9.0319338 -1.5568392 -1.5057755 27
10.806859 -1.8627839 -1.541203 11
12.730237 -2.1943176 -1.510656 54
15.762099 -2.7169213 -1.4922162 32
16.141956 -2.7823975 -1.1454012 3
31.301872 -5.3955202 -1.4812599 15
51.392067 -8.8584776 -1.210768 26
52.174583 -8.9933596 0 48
4.7977333 -0.8269878 -1.5191613 13
5.3730402 -0.92615372 -1.5634152 15
5.742929 -0.98991168 -1.5255867 14
6.3307705 -1.0912383 -1.5221524 13
7.1697297 -1.2358501 -1.5464473 15
8.2393894 -1.4202279 -1.5752741 12
9.063096 -1.5850238 -1.5116118 27
10.817883 -1.8919142 -1.5434297 11
12.803107 -2.2391057 -1.5199481 45
15.878993 -2.77704 -1.5039206 32
22.205921 -3.8835418 -1.5763568 21
31.31221 -5.4761195 -1.482378 15
51.110287 -8.9385586 -1.2046403 25
4.7656074 -0.83344597 -1.5096294 21
5.3764424 -0.94027352 -1.5650691 16
5.7767053 -1.0102745 -1.5352103 14
6.3338366 -1.1077099 -1.5235357 13
7.1743975 -1.2547137 -1.5481106 16
8.2397661 -1.4410334 -1.5760146 14
9.0541868 -1.6127961 -1.5109633 27
10.794338 -1.9227643 -1.5409247 11
12.690405 -2.2605052 -1.5074039 69
15.856468 -2.8244669 -1.5026201 39
21.044548 -3.7486048 -1.4947418 4
31.212244 -5.5597467 -1.478465 14
4.9001784 -0.87285459 -1.5531191 12
5.3734622 -0.95715934 -1.5650691 18
5.7906466 -1.0314711 -1.5397688 14
6.3399053 -1.1293091 -1.5258414 15
7.2859788 -1.2978303 -1.57306 24
8.2100439 -1.4624314 -1.5712007 16
9.0787764 -1.6433467 -1.5158269 30
10.810364 -1.9567808 -1.5439866 13
12.63322 -2.2867353 -1.501364 45
15.864194 -2.871573 -1.5041064 25
20.721844 -3.750855 -1.4725591 4
27.673733 -5.0092144 -1.31151 10
51.255058 -9.2776632 -1.2093289 26
4.8845711 -0.88415474 -1.5489488 12
5.3632002 -0.97079134 -1.5628638 18
5.7896471 -1.0479823 -1.5402753 14
6.3386416 -1.1473557 -1.5263025 13
100.63947 -18.216721 14.373799 63
7.3766518 -1.3352455 -1.5934354 13
8.246542 -1.4927042 -1.5789772 12
9.1007414 -1.676867 -1.5203663 30
10.800267 -1.9900149 -1.5434297 13
12.73342 -2.34621 -1.5141406 24
15.819843 -2.9149022 -1.5007622 18
22.222738 -4.0946746 -1.5801235 16
27.675543 -5.0993872 -1.3123484 32
50.999531 -9.3969736 -1.2039905 25
53.536797 -9.86448 0 51
4.8367066 -0.89119262 -1.5346508 19
5.3657966 -0.98868066 -1.5645177 19
5.8015485 -1.0689706 -1.5443274 14
6.3350062 -1.1672634 -1.5263025 15
7.3147035 -1.3477786 -1.5809606 16
8.2514763 -1.5203847 -1.5808287 16
9.0339479 -1.6906573 -1.5099906 31
10.784935 -2.0183454 -1.5420381 13
12.418313 -2.324024 -1.4774369 66
15.803812 -2.9576027 -1.5000191 14
20.185417 -3.7775977 -1.4360068 13
27.716179 -5.1869416 -1.314957 10
51.332748 -9.6066618 -1.2124856 26
4.8360758 -0.90504688 -1.5352465 16
5.3573456 -1.0025998 -1.5628638 16
5.8175588 -1.0887264 -1.5493923 14
6.3451118 -1.1874553 -1.5295303 13
7.2263031 -1.3523657 -1.5626644 18
8.2761774 -1.5488442 -1.5863833 14
9.1203165 -1.7331954 -1.5252298 25
10.771473 -2.0469759 -1.5409247 13
12.686941 -2.4109852 -1.5101914 42
15.834618 -3.0091596 -1.5037348 14
20.172831 -3.8335795 -1.4358673 13
43.780048 -8.3198185 -2.0781801 25
52.437538 -9.9650593 0 49
4.8897986 -0.92924148 -1.5531191 16
5.3545246 -1.0175565 -1.5628638 16
5.8201976 -1.1060514 -1.5509118 14
6.3398595 -1.2048063 -1.5290692 13
7.2013574 -1.3685226 -1.5580903 18
8.2621651 -1.570115 -1.5845318 14
9.1225777 -1.7633374 -1.5265269 24
10.76499 -2.0808053 -1.5409247 11
11.579301 -2.2382064 -1.3791735 7
15.87201 -3.0679605 -1.5081935 14
20.668036 -3.9950018 -1.4720011 4
49.116493 -9.4939108 -2.3328981 21
52.97543 -10.23982 0 50
4.9168472 -0.95039588 -1.562651 21
5.3494143 -1.0340084 -1.5623126 16
6.3341322 -1.2243482 -1.528608 13
7.2085471 -1.3933671 -1.5605854 16
8.2494726 -1.5945715 -1.5830505 12
9.1356716 -1.7890363 -1.5294451 24
10.750154 -2.1051998 -1.5395329 11
15.770663 -3.0883648 -1.499276 29
22.30092 -4.3671832 -1.5890524 16
44.023064 -8.6210251 -2.0919688 24
51.21122 -10.02868 -1.2115571 26
53.230923 -10.424197 0 51
4.9032688 -0.96020579 -1.5590765 22
5.3449845 -1.0467069 -1.5617614 15
5.7607646 -1.128129 -1.5367298 17
6.3158426 -1.2368299 -1.5249192 15
7.1974411 -1.4094729 -1.5589219 15
8.2224064 -1.6101916 -1.5786068 14
9.1338787 -1.8184986 -1.5300936 21
10.751258 -2.1405087 -1.5406463 11
12.893362 -2.5669885 -1.5373708 28
15.833144 -3.1522806 -1.50615 54
21.954447 -4.3709941 -1.5653353 42
21.341494 -4.2489586 -1.0147735 6
51.071606 -10.168039 -1.2090039 26
53.160641 -10.583954 0 51
4.9807439 -0.9916352 -1.5846937 19
5.2737918 -1.0499792 -1.5419155 24
5.7628851 -1.1473547 -1.5382493 17
6.3233781 -1.2589453 -1.5276859 13
7.187222 -1.4309312 -1.5576745 18
8.2076702 -1.6340961 -1.5767554 16
9.1493969 -1.8514903 -1.5336602 27
10.746421 -2.1746671 -1.5409247 13
12.933908 -2.6173315 -1.5431782 25
15.586997 -3.1542158 -1.4836701 58
49.080727 -9.9320736 -2.3352273 21
50.6651 -10.25269 -1.2001374 25
53.113407 -10.748135 0 51
4.9139805 -0.99440283 -1.5644382 22
5.2384338 -1.0600599 -1.5325438 33
5.5277991 -1.1186165 -1.3363217 9
7.1750212 -1.4519515 -1.5560112 18
8.2082739 -1.6610427 -1.5778662 16
9.1815796 -1.8813679 -1.5398208 30
10.739135 -2.2005215 -1.5406463 11
12.511024 -2.5635936 -1.4934658 36
15.678736 -3.2126791 -1.4931451 54
21.165478 -4.3369493 -1.5107857 20
21.293941 -4.3632727 -1.0136554 6
51.405777 -10.533392 -1.2182883 27
53.210419 -10.903175 0 51
4.947073 -1.0136888 -1.5757575 19
5.318697 -1.089837 -1.5567999 22
5.4796557 -1.1228186 -1.4642998 38
6.25524 -1.281741 -1.51293 15
7.1637864 -1.4679083 -1.554348 16
8.1830111 -1.6767544 -1.5737928 20
9.1833534 -1.9118123 -1.5411178 25
10.753498 -2.2386889 -1.5437082 11
12.674047 -2.6385133 -1.5139083 60
15.21042 -3.1665413 -1.4494859 21
20.261066 -4.2179971 -1.4471678 4
49.102726 -10.222322 -2.3389542 21
51.14732 -10.64797 -1.2129499 26
52.788216 -10.989576 0 50
4.8541451 -1.0105475 -1.5471615 25
5.260664 -1.0951775 -1.5408128 39
5.4742074 -1.1396335 -1.4637934 38
6.0092134 -1.2510123 -1.4543679 20
7.1687155 -1.4924002 -1.5564271 18
8.2700644 -1.7216816 -1.5915675 18
9.2146673 -1.9451946 -1.5472784 24
10.776271 -2.2748456 -1.5478834 13
12.967894 -2.7374918 -1.5499151 21
15.939967 -3.3648896 -1.5198981 15
21.164747 -4.4678283 -1.5125995 15
15.81588 -3.338695 -0.75381309 10
50.89045 -10.742854 -1.2075648 26
53.258282 -11.242699 0 51
4.8905325 -1.03238 -1.5596722 22
5.3892598 -1.1376601 -1.5794022 16
93.143883 -19.662455 8.8813992 63
5.5372615 -1.1689029 -1.481521 50
5.384943 -1.1367488 -1.3040433 5
7.2889371 -1.5386775 -1.5834556 27
8.2556086 -1.7427396 -1.589716 16
9.2304268 -1.9754623 -1.5508449 27
10.686599 -2.287107 -1.5359144 17
12.670769 -2.7117517 -1.5153021 100
15.838986 -3.3898022 -1.5111662 15
21.138531 -4.5239911 -1.5116227 15
48.964771 -10.479262 -2.3351343 21
50.686237 -10.847684 -1.2034334 25
53.156277 -11.376312 0 51
4.9100342 -1.0508276 -1.5668212 16
5.3879418 -1.1531076 -1.5799534 16
93.055504 -19.9154 8.8782406 63
5.7004681 -1.2199934 -1.5260932 17
92.93969 -19.890614 11.114693 63
6.2913923 -1.3464608 -1.5244581 10
7.3668699 -1.5766306 -1.601336 16
8.3064442 -1.7777147 -1.6004548 16
9.2225971 -2.0024221 -1.5505207 27
10.612025 -2.3040967 -1.5261724 16
12.786906 -2.7763095 -1.5301694 45
15.741288 -3.4177687 -1.5028059 25
21.698227 -4.7111468 -1.5526396 15
49.050606 -10.64993 -2.3407242 21
50.814053 -11.032812 -1.2072399 26
52.909248 -11.487723 0 51
90.260605 -19.597498 4.3072906 63
4.9218202 -1.0686319 -1.5715872 16
5.4014053 -1.17276 -1.5849149 18
5.6514449 -1.2270489 -1.5139371 24
6.2892714 -1.3655347 -1.5249192 10
7.3028951 -1.585614 -1.5884454 15
8.308816 -1.8040206 -1.601936 18
9.166151 -2.0203409 -1.5420904 30
10.749793 -2.3693964 -1.5470482 14
13.001209 -2.8656383 -1.5568841 21
15.901604 -3.5049236 -1.5191548 15
20.746157 -4.5727272 -1.485534 4
24.721109 -5.4488592 -1.1805173 9
51.366871 -11.321938 -1.2212129 27
52.742039 -11.625043 0 50
4.9240322 -1.0853218 -1.5733744 18
5.3920622 -1.1884818 -1.5832611 16
5.4756227 -1.2068996 -1.4678454 38
6.2849503 -1.3852861 -1.5249192 10
7.2462959 -1.5971794 -1.5772183 15
8.2915916 -1.8275763 -1.5997142 18
9.2259617 -2.0605562 -1.5531148 22
10.743135 -2.3994064 -1.5470482 16
15.845113 -3.5388987 -1.5146961 26
20.538591 -4.5871553 -1.4715825 4
49.191273 -10.986538 -2.3505068 22
4.9284363 -1.1007328 -1.5757575 16
5.3699594 -1.199344 -1.5777484 16
5.6893835 -1.2706852 -1.5260932 21
6.2772589 -1.4019833 -1.5239968 10
7.1902575 -1.6058954 -1.565991 16
8.2653561 -1.8460113 -1.5956408 16
9.2066965 -2.0832627 -1.5508449 21
10.751846 -2.4328947 -1.5492752 16
12.54132 -2.837811 -1.503687 30
22.331528 -5.0531092 -1.6010506 10
50.924507 -11.523041 -1.2122071 26
53.308311 -12.06244 0 52
4.9625859 -1.1229186 -1.5876725 20
5.334712 -1.2071222 -1.5683765 15
5.7688441 -1.3053563 -1.5483793 17
6.2828102 -1.4216548 -1.5263025 10
7.157124 -1.6194919 -1.5597537 18
8.2141619 -1.8586751 -1.5867536 18
9.177393 -2.1052754 -1.5469542 22
10.619105 -2.4360013 -1.5311826 50
12.811653 -2.9389672 -1.5371383 46
13.963108 -3.2031085 -1.3365293 6
20.504053 -4.703588 -1.4710245 14
28.953665 -6.641912 -1.385298 11
50.860863 -11.667379 -1.2115108 26
53.441883 -12.259459 0 52
5.0076146 -1.1487367 -1.6031621 25
5.2936296 -1.214348 -1.5573511 20
89.275383 -20.479591 8.5453157 63
5.7856898 -1.3272256 -1.5539508 17
6.284255 -1.4415953 -1.5276859 10
91.989136 -21.102121 13.264033 63
7.1618218 -1.6429074 -1.5618328 15
8.2239361 -1.8865544 -1.589716 16
9.158021 -2.1277688 -1.5446844 22
10.726082 -2.4920907 -1.547605 24
12.619578 -2.9320245 -1.5150698 54
14.000661 -3.2529044 -1.3409882 9
20.348972 -4.7278666 -1.4608401 9
15.838455 -3.6798961 -0.75828505 11
50.861191 -11.817056 -1.2122999 26
53.37822 -12.40186 0 52
5.0378613 -1.1704934 -1.6138854 25
5.2246761 -1.2138978 -1.5380566 33
89.223656 -20.730165 8.5458727 63
5.781961 -1.343377 -1.5539508 14
91.138817 -21.175133 10.941861 63
6.2802048 -1.4591386 -1.5276859 10
7.1705446 -1.6659997 -1.5647435 15
8.2128935 -1.9081782 -1.5886052 16
9.1459036 -2.1535745 -1.5437117 25
10.653094 -2.5084708 -1.5381413 26
12.784845 -3.0104315 -1.535977 53
15.837145 -3.7291527 -1.1377281 3
30.324799 -7.140542 -1.452844 14
53.551437 -12.60969 0 53
5.0696754 -1.1937501 -1.6252047 21
5.340817 -1.2575954 -1.5733382 15
89.022202 -20.961945 8.5324965 63
5.7252178 -1.3481098 -1.5397688 25
6.2739534 -1.47732 -1.5272248 10
91.609657 -21.571213 13.227012 63
7.1788993 -1.6904064 -1.5676543 16
8.1804104 -1.926231 -1.5834208 18
9.1317959 -2.1788695 -1.5424148 21
10.707251 -2.5547769 -1.5470482 26
12.81257 -3.0571113 -1.5403907 34
13.82809 -3.2994168 -1.3263112 25
21.217138 -5.0624623 -1.525295 15
32.977428 -7.8684969 -1.5810417 18
51.515606 -12.291753 -1.2296151 28
53.336758 -12.726284 0 52
5.3239722 -1.2703131 -1.5694792 15
6.2619705 -1.4941218 -1.5253803 10
7.1738524 -1.7116991 -1.5676543 16
8.20716 -1.9582489 -1.589716 16
9.1141663 -2.2015812 -1.5404693 21
10.780931 -2.6041985 -1.5587388 17
12.678473 -3.0625608 -1.5252911 100
13.813014 -3.3366163 -1.3257538 12
21.402672 -5.1699433 -1.5396649 20
33.03495 -7.9797897 -1.5848615 18
51.486912 -12.436972 -1.2297544 28
53.435154 -12.907581 0 53
5.3110604 -1.2829185 -1.5667229 16
5.7512107 -1.3892394 -1.5488858 19
6.2596655 -1.5120597 -1.5258414 10
7.1709456 -1.7321849 -1.5680701 16
8.1959286 -1.9797757 -1.5886052 18
9.1114273 -2.229552 -1.5411178 22
10.7847 -2.6389995 -1.5604089 17
12.927887 -3.1634338 -1.5564195 25
13.944256 -3.4121377 -1.339316 3
21.086855 -5.1599207 -1.5180404 15
30.38941 -7.4362411 -1.4589931 14
51.56826 -12.618672 -1.2325861 28
53.51318 -13.094592 0 53
5.3016286 -1.2973002 -1.5650691 15
5.7282701 -1.4016987 -1.5438207 19
90.883049 -22.238939 10.941628 63
6.2532611 -1.5301632 -1.5253803 13
7.177176 -1.7562438 -1.5705651 22
8.1613808 -1.9970771 -1.5830505 18
9.1051645 -2.254987 -1.5411178 21
10.783056 -2.6705339 -1.561244 17
12.87851 -3.1894946 -1.5515411 25
13.789702 -3.4151607 -1.3253822 9
17.355991 -4.2983885 -1.2503151 3
30.413126 -7.5321212 -1.4611359 14
5.0018449 -1.238758 -1.6079279 16
5.2979846 -1.3121001 -1.5650691 15
5.7036748 -1.4125732 -1.5382493 17
6.2432961 -1.546216 -1.5239968 10
7.3070679 -1.80967 -1.6000886 19
8.1958351 -2.0297823 -1.5908269 18
9.1103191 -2.2832835 -1.5430632 18
10.80053 -2.7068944 -1.5648625 17
13.80136 -3.4589806 -1.3274258 9
21.133184 -5.2965269 -1.5234814 15
20.737392 -5.197331 -0.99697858 6
51.000469 -12.782047 -1.2207022 27
4.9687352 -1.2452946 -1.5983959 18
5.2625971 -1.318944 -1.5556973 20
5.705338 -1.4299065 -1.5397688 17
6.2578316 -1.5683757 -1.528608 10
7.2754188 -1.8234097 -1.594267 18
8.2111063 -2.0579174 -1.5949003 16
9.0862885 -2.3059351 -1.5401449 16
10.734862 -2.7243133 -1.5565121 32
21.009083 -5.3317242 -1.5156686 20
20.77029 -5.2711229 -0.99930781 6
51.111549 -12.971184 -1.2242767 27
4.9465132 -1.2553352 -1.5924385 18
5.3052473 -1.3463755 -1.5694792 15
5.6935692 -1.4449246 -1.5377429 17
6.2606964 -1.5888511 -1.5304526 11
7.2149873 -1.8310329 -1.582208 16
8.2049646 -2.0822711 -1.5949003 18
9.0617962 -2.3300457 -1.5372268 18
10.680215 -2.7461872 -1.5498317 60
12.389803 -3.185771 -1.4960212 18
13.469465 -3.463383 -1.2975147 3
20.982567 -5.395215 -1.514971 20
30.720249 -7.8990502 -1.4792103 14
51.512066 -13.245217 -1.2348608 28
5.3326449 -1.3711747 -1.5788509 14
5.694623 -1.4642497 -1.5392622 17
6.2594433 -1.609481 -1.5313747 11
7.175096 -1.8449214 -1.5747232 19
8.1888647 -2.1055901 -1.5930487 18
9.0399742 -2.3513677 -1.5346329 18
10.873764 -2.8283505 -1.5790582 21
12.380857 -3.2203572 -1.4960212 21
20.196999 -5.253396 -1.4593054 19
51.471001 -13.388007 -1.2347679 28
54.545048 -14.187591 0 55
4.7930064 -1.2466981 -1.5453743 24
5.3734493 -1.397676 -1.5920815 15
5.6867671 -1.4791722 -1.5382493 19
6.2511578 -1.6259747 -1.5304526 11
7.1623425 -1.862981 -1.57306 19
8.1715403 -2.1254811 -1.5908269 18
8.9837503 -2.3635473 -1.5262027 22
10.835176 -2.8506417 -1.5746045 24
20.392561 -5.3651071 -1.4745123 14
33.10041 -8.7084332 -1.5961347 18
51.087292 -13.440627 -1.2264585 27
4.8522825 -1.2765938 -1.5656297 21
5.3769627 -1.4146326 -1.5942866 15
5.6788721 -1.4940623 -1.5372362 19
6.2484746 -1.6439199 -1.5309137 11
7.1627879 -1.8844678 -1.5743074 16
8.1731758 -2.1502924 -1.5923082 14
8.8256264 -2.3516166 -1.5005876 100
10.870185 -2.8963959 -1.5810065 26
12.893229 -3.4354427 -1.5603687 18
18.526783 -4.9365215 -1.3407195 4
42.167355 -11.235629 -2.0350437 25
50.90184 -13.562961 -1.2230233 27
53.959358 -14.377646 0 54
4.9109735 -1.3085448 -1.5858853 19
5.3427682 -1.4235979 -1.5854661 20
5.6760197 -1.5123938 -1.5377429 17
6.2451596 -1.6640429 -1.5313747 11
7.0698762 -1.8837914 -1.5551796 31
8.1530867 -2.1724162 -1.589716 16
8.9718933 -2.4157636 -1.5265269 24
10.963923 -2.9521358 -1.5957589 17
12.859255 -3.462471 -1.5573487 25
21.503744 -5.7900782 -1.5572436 47
13.440189 -3.6188927 -0.64909357 3
51.568932 -13.885402 -1.2399207 29
54.508625 -14.676942 0 56
4.8909383 -1.3169296 -1.5805235 14
5.6925917 -1.532782 -1.5433143 17
6.2295065 -1.6773511 -1.528608 13
6.9893603 -1.8819486 -1.5385467 63
8.1435757 -2.1927314 -1.5889754 16
8.9574957 -2.4387345 -1.5252298 24
10.917417 -2.9723356 -1.590192 21
12.843785 -3.4968016 -1.5566517 18
15.590357 -4.2445731 -1.5074505 54
13.403044 -3.6490633 -0.64778924 9
51.365971 -13.98471 -1.2359749 28
4.8964529 -1.3330902 -1.5835023 18
5.705091 -1.553247 -1.5478729 19
7.1671734 -1.9513081 -1.5788815 16
8.1886225 -2.2294042 -1.5989736 16
9.0030622 -2.4815471 -1.5343087 22
10.621625 -2.9276774 -1.54844 48
12.838482 -3.5387177 -1.5573487 21
15.423365 -4.2511983 -1.4925878 14
20.3342 -5.6047897 -1.4749309 4
20.816263 -5.7376628 -1.0069474 6
50.74929 -13.988213 -1.2221878 27
5.1302304 -1.4140642 -1.5259285 31
5.7039137 -1.5721905 -1.5488858 21
6.189425 -1.7060139 -1.5212302 13
7.1364903 -1.967057 -1.5734758 22
8.2005262 -2.2603409 -1.6026766 22
8.9960976 -2.5066788 -1.5343087 24
10.64775 -2.9668963 -1.5534503 61
12.884044 -3.5900187 -1.5640854 21
13.68882 -3.8142622 -1.3257538 12
20.130123 -5.6090713 -1.4612586 19
49.240646 -13.720447 -2.3837674 23
51.38031 -14.316645 -1.2383424 28
4.8056941 -1.339062 -1.5566936 20
5.1021862 -1.4216766 -1.5187619 33
5.2652354 -1.4671087 -1.4308707 73
6.2483768 -1.741052 -1.5369081 13
7.1441612 -1.9906539 -1.5763866 22
8.2528753 -2.2995868 -1.6141561 16
9.0327539 -2.5440965 -1.5417662 21
10.688989 -3.0105789 -1.5606873 100
12.71909 -3.5823617 -1.545269 25
14.370071 -4.0473642 -1.3928218 13
20.421646 -5.7518048 -1.4835807 14
49.342514 -13.897435 -2.3905685 24
50.643433 -14.263842 -1.2215378 27
54.01638 -15.21384 0 55
4.8111243 -1.3550645 -1.5596722 18
5.114851 -1.4406098 -1.5237234 22
5.2275958 -1.4723648 -1.4217536 22
6.2434902 -1.7584938 -1.5369081 13
7.1705856 -2.0196123 -1.5834556 30
8.2350693 -2.3194268 -1.6119342 16
9.0194721 -2.5692637 -1.5407935 19
10.579057 -3.0135231 -1.5459349 29
12.828765 -3.6543694 -1.559904 21
13.712589 -3.9061332 -1.3302126 9
20.577183 -5.8615637 -1.4961369 14
49.237659 -14.025715 -2.3874941 23
54.084488 -15.40637 0 55
4.8125916 -1.3709025 -1.5614594 19
5.1604762 -1.4700001 -1.5386078 33
5.5618658 -1.5843389 -1.5139371 16
6.2363739 -1.7764776 -1.5364472 13
7.196547 -2.0499899 -1.5905247 27
8.2073584 -2.3379273 -1.6078608 18
9.0084686 -2.5933492 -1.5401449 21
10.618181 -3.0567517 -1.5528936 35
12.864325 -3.7033691 -1.5654792 15
13.248096 -3.813849 -1.2861818 9
20.585657 -5.9261789 -1.4979506 14
49.442127 -14.233352 -2.3993263 24
51.478886 -14.819692 -1.2437273 29
4.8289266 -1.3901467 -1.5680128 20
5.2672005 -1.5163165 -1.5716842 14
5.6819925 -1.6357265 -1.5478729 14
6.2239079 -1.7917325 -1.5346025 13
7.1625948 -2.0619609 -1.5842873 27
8.1686897 -2.3515944 -1.6015657 18
9.0514364 -2.6365392 -1.5488997 19
10.656063 -3.1039414 -1.5598522 29
12.787782 -3.7248771 -1.5575809 28
13.224577 -3.8521085 -1.2850671 3
20.354317 -5.9288878 -1.4824646 14
49.402916 -14.390283 -2.3996058 24
51.558769 -15.018248 -1.2467911 29
54.078522 -15.752212 0 55
4.8501973 -1.4127853 -1.5763533 36
5.2605648 -1.5323187 -1.571133 18
5.641531 -1.6432881 -1.5382493 21
6.2163796 -1.8107324 -1.5341414 13
7.1673512 -2.0877352 -1.5867822 21
8.1518269 -2.3744974 -1.5997142 18
9.0416803 -2.6628261 -1.5485753 19
10.726602 -3.1590447 -1.5715429 32
12.55563 -3.6977041 -1.5306339 81
20.101231 -5.9199262 -1.4653045 4
49.425159 -14.555989 -2.4027734 24
54.597515 -16.079277 0 57
4.8459845 -1.4271698 -1.5763533 32
5.2338648 -1.5414028 -1.5645177 22
5.6143589 -1.6534604 -1.5321712 21
6.2147136 -1.8302684 -1.5350637 13
7.1292229 -2.0995965 -1.5797132 22
8.1579437 -2.4025605 -1.6023064 18
9.0242834 -2.686826 -1.5469542 19
10.705791 -3.1874664 -1.5698727 40
12.742606 -3.7938931 -1.5547934 31
15.350521 -4.5703554 -1.4942597 29
18.50412 -5.5092854 -1.3500668 12
49.308994 -14.68091 -2.3992331 24
51.689121 -15.389552 -1.2521297 30
4.9222412 -1.4655131 -1.6025661 21
5.1997867 -1.5481477 -1.5556973 27
5.6632047 -1.6861223 -1.5468599 17
6.2073903 -1.8481444 -1.5346025 16
6.9485903 -2.0688241 -1.5410416 90
8.1658487 -2.4312418 -1.6052687 16
9.0422621 -2.7162495 -1.5511693 21
10.660035 -3.20222 -1.5643058 97
12.402267 -3.7255776 -1.5143729 30
20.917292 -6.2834482 -1.5272483 20
49.135212 -14.759967 -2.392525 24
51.524975 -15.477839 -1.2490659 29
53.927422 -16.199522 0 55
4.9387589 -1.483578 -1.6091195 20
5.2457023 -1.5757822 -1.5705818 22
5.685009 -1.7077478 -1.5539508 14
6.1674433 -1.8526685 -1.5258414 18
6.7205577 -2.0188212 -1.4915586 72
8.161767 -2.4517531 -1.6056392 18
8.9581518 -2.7216947 -1.5381997 30
10.473686 -3.1821494 -1.5384196 68
12.749728 -3.8736634 -1.5582778 25
21.262062 -6.459908 -1.5538952 15
32.926445 -10.003819 -1.6047992 19
51.168087 -15.546054 -1.2415919 29
53.807373 -16.347929 0 55
4.9340734 -1.4990863 -1.6091195 20
5.2756763 -1.602873 -1.5810559 16
5.6962776 -1.7306615 -1.5585093 14
6.1299367 -1.8624172 -1.5180023 18
95.223953 -28.93125 13.986898 63
7.1016469 -2.1576452 -1.5776341 22
8.1897535 -2.4882374 -1.6126748 18
9.016551 -2.766964 -1.549548 18
10.457186 -3.2090604 -1.5373062 68
12.704679 -3.8987625 -1.5540965 28
20.843397 -6.3963404 -1.5245975 10
33.068367 -10.147892 -1.6130911 19
51.336643 -15.753989 -1.2467446 29
4.8075795 -1.4753313 -1.5692042 28
5.3189654 -1.6322634 -1.595389 24
5.6858735 -1.7448587 -1.5569899 14
6.1377358 -1.8835245 -1.5212302 18
95.197701 -29.213898 13.99497 63
6.936626 -2.1286848 -1.542289 90
8.2109575 -2.5197468 -1.6182295 20
9.0144444 -2.793885 -1.5505207 18
10.565474 -3.2746022 -1.5545636 102
12.657691 -3.9230521 -1.5496827 18
13.1948 -4.0895209 -1.2887828 6
18.207029 -5.642982 -1.3329067 8
35.261131 -10.928633 -1.7215372 23
51.256168 -15.886043 -1.2458627 29
53.650276 -16.628059 0 55
4.8417377 -1.5006204 -1.581715 16
5.2446055 -1.625483 -1.5744407 48
5.6680422 -1.7567205 -1.5534444 14
6.1101456 -1.8937435 -1.5156968 18
7.0053988 -2.1712132 -1.5589219 48
9.0150385 -2.8251414 -1.5521419 18
10.874527 -3.4078701 -1.6016041 22
12.632035 -3.9586394 -1.5480566 21
13.913476 -4.360219 -1.3603096 9
18.434803 -5.7771168 -1.3509039 4
32.957996 -10.328408 -1.6106687 19
4.8187809 -1.5101143 -1.5757575 16
5.2027822 -1.630453 -1.5634152 51
5.6772652 -1.7791469 -1.5574963 17
6.1115942 -1.9152573 -1.5175412 18
6.8641353 -2.1510894 -1.5289828 100
7.9257908 -2.4837921 -1.5649056 46
9.0146399 -2.8526871 -1.5534389 19
10.836645 -3.4292614 -1.597429 22
12.626612 -3.995697 -1.5487535 21
20.594667 -6.5171919 -1.5105067 20
49.305923 -15.602882 -2.4117174 24
51.317314 -16.239388 -1.2496693 30
4.8090839 -1.5218369 -1.5739703 15
5.2733588 -1.6687568 -1.5860174 30
5.7073231 -1.806085 -1.56712 14
6.1062217 -1.9323167 -1.5175412 18
6.9103246 -2.1867754 -1.5406258 69
7.939435 -2.5124378 -1.5689789 24
9.0085192 -2.8784502 -1.5537632 19
10.821366 -3.4577012 -1.5965939 26
12.600267 -4.0261049 -1.5468951 18
14.112739 -4.509378 -1.3822322 3
20.525076 -6.5582819 -1.5067397 20
50.974648 -16.287693 -1.2424276 29
54.968159 -17.563721 0 58
4.8139086 -1.5381659 -1.576949 14
5.3309436 -1.7033716 -1.6047609 20
5.7225308 -1.8284937 -1.5726916 12
6.1063633 -1.951138 -1.5189246 18
95.524597 -30.522532 14.093782 63
7.0886755 -2.2650115 -1.5817922 25
8.0128918 -2.5603223 -1.584902 30
9.0211067 -2.9102607 -1.5573299 18
10.798475 -3.48365 -1.5946455 27
12.605989 -4.0667648 -1.5489858 15
20.561747 -6.6333375 -1.5107857 15
49.335896 -15.916044 -2.4174938 25
5.2968912 -1.7088076 -1.5959405 20
5.719244 -1.8450609 -1.573198 12
6.1175604 -1.9735601 -1.5230746 15
7.0283303 -2.2673798 -1.5697334 66
8.1422567 -2.626739 -1.6119342 18
9.0269299 -2.9434817 -1.5599238 21
10.740404 -3.502208 -1.5876869 27
12.593151 -4.106348 -1.5489858 18
14.11413 -4.6023054 -1.3850188 9
18.522575 -6.0398016 -1.3623439 12
49.234367 -16.054237 -2.4149783 25
50.996857 -16.628946 -1.2453521 29
54.307739 -17.708551 0 57
54.968658 -17.924063 2.696249 40
5.2841854 -1.7230558 -1.5937352 16
5.7152586 -1.8636192 -1.5737045 14
6.1150303 -1.993976 -1.5239968 15
8.1395712 -2.6541338 -1.6130452 18
9.0195112 -2.9724436 -1.560248 21
10.795184 -3.5576291 -1.597429 27
12.589622 -4.1489987 -1.5501473 18
18.475084 -6.0885944 -1.3602512 17
4.7689252 -1.5716329 -1.5668212 13
5.2787461 -1.739648 -1.5937352 16
5.7057004 -1.8803538 -1.5726916 17
6.0902524 -2.0070856 -1.5193857 15
6.8597317 -2.260673 -1.53522 21
8.1218596 -2.6766162 -1.6111937 18
9.0116987 -2.9960463 -1.560248 21
10.819662 -3.5971253 -1.6024393 26
12.563637 -4.1769304 -1.5482889 18
14.811127 -4.9241352 -1.4561741 24
18.394712 -6.115541 -1.3555079 12
31.409647 -10.442511 -1.5435885 17
4.7521119 -1.5798961 -1.562651 14
5.2759981 -1.7540683 -1.5942866 14
5.68607 -1.8904015 -1.5686394 17
6.1015978 -2.0285487 -1.5235357 15
6.6718636 -2.2181404 -1.4944693 23
8.1166887 -2.6984897 -1.6115639 20
8.980319 -3.0152333 -1.556357 24
10.852124 -3.6437111 -1.6088412 19
12.477745 -4.1895299 -1.5392292 25
14.839869 -4.9826369 -1.4604472 52
21.009264 -7.0540738 -1.5497099 15
31.391781 -10.54011 -1.5442407 17
4.7636929 -1.5994583 -1.5680128 13
5.2780604 -1.7721624 -1.5964917 15
5.6822696 -1.9078798 -1.5691459 17
6.1029315 -2.0491214 -1.5253803 18
6.583653 -2.2105284 -1.4761732 44
8.1552267 -2.7382004 -1.6208216 20
9.0161905 -3.0570745 -1.5641389 19
10.880654 -3.6892488 -1.6146864 17
12.49536 -4.2367392 -1.542946 28
49.115166 -16.653233 -2.4185185 25
21.53562 -7.3019748 -0.52795279 6
53.295753 -18.070723 0 55
4.7896638 -1.6240073 -1.5781405 16
5.2818828 -1.7909014 -1.5992479 15
93.480042 -31.69581 9.2089357 63
5.6674228 -1.9216247 -1.5666134 14
6.1115699 -2.0722194 -1.5290692 22
6.6808162 -2.2652307 -1.4994593 22
8.1842937 -2.7750072 -1.6282277 18
8.9801455 -3.0710888 -1.5592752 22
10.687308 -3.6549156 -1.5874084 68
12.369572 -4.230227 -1.5287756 39
20.442846 -6.9911785 -1.5107857 20
51.177437 -17.501995 -1.2557505 30
53.422363 -18.26973 0 56
4.8088803 -1.6445724 -1.5858853 20
5.2753568 -1.804101 -1.5986967 15
5.6623726 -1.9364552 -1.5666134 17
6.1042819 -2.0875823 -1.528608 18
6.6804161 -2.2846124 -1.5007068 22
8.1602631 -2.7907 -1.6248949 22
8.9448767 -3.0887017 -1.5547358 27
9.5269661 -3.2896998 -1.4165039 3
12.392641 -4.2792287 -1.5331893 34
14.126619 -4.8779783 -1.3943081 6
20.538939 -7.0921774 -1.5194355 20
21.482622 -7.4180355 -1.0598662 7
51.042122 -17.62505 -1.253708 30
4.8328538 -1.6688038 -1.5954173 23
5.2754326 -1.821628 -1.6003506 18
5.6492867 -1.9507214 -1.5645875 17
6.10358 -2.1075904 -1.5299914 19
6.6754575 -2.3050621 -1.5011225 22
8.1463737 -2.8129754 -1.6237839 22
9.0064888 -3.1399162 -1.567057 18
12.492434 -4.3552151 -1.5471274 25
19.332815 -6.7399654 -1.4316819 4
20.641788 -7.1963105 -1.0194318 6
51.605099 -17.990995 -1.2688415 31
4.8801622 -1.7013624 -1.6126939 21
5.2790813 -1.8404368 -1.603107 16
5.6453009 -1.9681113 -1.565094 17
6.100975 -2.1269722 -1.5309137 19
6.6593528 -2.3216383 -1.4990435 23
8.1435585 -2.8390746 -1.6248949 18
8.9902372 -3.1624353 -1.56576 19
10.488728 -3.6895487 -1.5626357 34
12.51208 -4.4012899 -1.5510765 21
13.762035 -4.8409781 -1.3610528 16
25.316223 -8.9053164 -1.2515105 10
51.549 -18.133043 -1.2687021 31
4.9006066 -1.7238533 -1.6210345 17
5.2993116 -1.8641031 -1.6108248 15
5.6580348 -1.9902886 -1.570159 17
6.0950117 -2.144001 -1.5309137 19
6.6509976 -2.3395765 -1.4986275 23
8.1281834 -2.8591962 -1.6234137 18
8.8971262 -3.1593778 -1.5511693 27
10.653171 -3.7829511 -1.5888002 47
12.482119 -4.4324121 -1.5489858 25
19.462885 -6.9112892 -1.4442379 13
49.035603 -17.412588 -2.4266241 25
51.167118 -18.169493 -1.2606248 31
4.8145089 -1.7096366 -1.5942258 22
5.3191209 -1.8888249 -1.6185427 15
5.6521044 -2.0070677 -1.570159 14
6.0867896 -2.1614249 -1.5304526 16
6.6993318 -2.3789392 -1.5111023 20
8.108552 -2.8793545 -1.6211919 16
8.9583082 -3.211067 -1.5634903 21
10.67546 -3.8265724 -1.5938104 35
17.780159 -6.3732209 -1.3207691 4
48.981842 -17.557329 -2.4265311 25
51.090397 -18.313131 -1.2600677 31
4.7842541 -1.7148951 -1.5858853 18
5.3370204 -1.9130319 -1.6257092 14
5.6479454 -2.0244818 -1.5706655 17
96.293739 -34.516075 11.962361 63
6.0876775 -2.1821017 -1.532297 19
6.6940856 -2.399466 -1.5115181 22
8.0814705 -2.8967681 -1.6174887 18
8.9747238 -3.2470331 -1.5680299 18
10.749729 -3.8892252 -1.6066145 40
12.479879 -4.5151896 -1.5520056 12
18.337137 -6.6343312 -1.3635995 8
18.382603 -6.6507802 -0.45386392 5
52.866341 -19.126911 0 55
4.798893 -1.7362275 -1.5924385 17
5.3204737 -1.9249343 -1.6224015 14
5.6073461 -2.028724 -1.561042 19
6.0848365 -2.2014787 -1.5332192 19
6.6795788 -2.4166551 -1.5098549 22
8.0839291 -2.9247456 -1.6197106 20
8.9637661 -3.2714055 -1.5677054 19
10.839293 -3.9558954 -1.6216451 22
12.491482 -4.558876 -1.5550256 12
14.35922 -5.2405233 -1.4260771 13
20.773758 -7.5815654 -1.5463616 20
18.388378 -6.7110004 -0.91284889 5
51.089256 -18.645473 -1.2626673 31
53.053207 -19.362234 0 56
4.7796783 -1.7443856 -1.5876725 15
5.5562201 -2.0277915 -1.5483793 21
6.0932903 -2.2237999 -1.5369081 19
6.709559 -2.4487126 -1.5181713 22
8.0905018 -2.9526999 -1.6226732 16
8.9651327 -3.3020797 -1.5696509 18
10.851668 -3.9969375 -1.6252636 17
12.511453 -4.6082768 -1.5592071 12
14.113765 -5.1984482 -1.4032257 13
20.721216 -7.6321359 -1.5441294 20
31.663813 -11.662564 -1.5735884 18
4.7529821 -1.7506407 -1.5805235 14
5.2840419 -1.9462432 -1.6146837 19
5.5973835 -2.0616548 -1.5615485 21
6.092144 -2.2438872 -1.5382916 19
6.7297993 -2.4787514 -1.5244086 19
8.1056795 -2.985522 -1.6274869 16
8.9571447 -3.3293529 -1.5699751 18
10.633696 -3.9525237 -1.5943671 52
12.512621 -4.6509161 -1.5610654 12
20.763933 -7.7179127 -1.5490123 20
51.155766 -19.014496 -1.2670774 31
4.6851315 -1.741454 -1.5596722 19
4.9106231 -1.8252689 -1.5022237 51
5.6583443 -2.1031952 -1.580289 17
5.8793268 -2.1853342 -1.4861851 30
6.7480874 -2.5082507 -1.5302302 21
8.1059971 -3.0129831 -1.6293385 19
8.9533567 -3.3564312 -1.5709479 18
10.47982 -3.9286714 -1.5729346 61
12.521904 -4.6942067 -1.5638531 12
51.199818 -19.193769 -1.2694913 31
5.0765247 -1.9030858 -1.5545948 37
5.6433907 -2.1155922 -1.5777565 14
5.8476896 -2.1921797 -1.4797295 21
6.74472 -2.5284581 -1.5310618 19
8.1049137 -3.038367 -1.6308198 17
8.9119787 -3.3711116 -1.5654358 22
10.608903 -4.0130029 -1.5940888 37
12.546939 -4.7460985 -1.5687314 12
15.081092 -5.7046862 -1.5042921 14
17.302336 -6.5449104 -1.2935641 3
50.710644 -19.182186 -1.258768 30
5.2560678 -1.9881994 -1.611376 20
5.6370888 -2.1323273 -1.5777565 14
6.0978141 -2.3066046 -1.5447472 19
6.7097421 -2.5380769 -1.5248244 22
8.097702 -3.063097 -1.6311901 19
8.9197197 -3.400759 -1.568354 19
10.572452 -4.0308847 -1.590192 40
12.541896 -4.7817607 -1.5696607 12
14.029695 -5.3490033 -1.4008105 6
53.794769 -20.509954 0 58
61.613968 -23.491125 1.5309377 63
5.1107264 -1.9485308 -1.5683765 65
5.6260633 -2.1450098 -1.5762371 17
6.0517488 -2.3073077 -1.5346025 24
6.7286658 -2.5653913 -1.5306461 22
8.0749626 -3.0786846 -1.6282277 20
8.9182005 -3.4323087 -1.5699751 16
10.733483 -4.1309485 -1.6163565 26
12.534226 -4.8239927 -1.5705898 15
20.871023 -8.0325394 -1.5638007 42
53.487423 -20.58547 0 58
4.6558523 -1.7918774 -1.5566936 20
5.2570891 -2.0232728 -1.615235 19
5.6048512 -2.1571145 -1.5721849 17
6.0916929 -2.3444831 -1.5465916 16
6.7041416 -2.5801935 -1.5269036 25
8.0450745 -3.0962725 -1.6241542 20
8.8938618 -3.4514875 -1.5673813 21
9.647315 -3.7438841 -1.4543591 3
15.156137 -5.8817215 -1.5167397 33
20.604853 -7.9962335 -1.5455244 20
27.514675 -10.677764 -1.3763541 11
50.541016 -19.613716 -1.2586751 30
53.453964 -20.74416 0 58
61.050358 -23.692133 1.5204 63
5.0703969 -1.9676956 -1.5595562 83
96.042084 -37.271553 9.6113434 63
5.597002 -2.1720579 -1.5716785 17
6.0960078 -2.3657098 -1.5493584 19
6.6057215 -2.5635169 -1.5061125 23
8.051055 -3.1244149 -1.6271167 16
8.8400812 -3.4590511 -1.5595995 24
12.183359 -4.7672486 -1.5299371 42
20.862995 -8.1635189 -1.5665908 21
27.546144 -10.77858 -1.3794285 11
50.109924 -19.607601 -1.2492979 29
54.140827 -21.184862 0 59
61.080776 -23.900406 1.5228139 63
4.6013231 -1.80046 -1.5417998 18
4.9252357 -1.9272044 -1.5165569 21
5.605329 -2.1933191 -1.5757304 14
6.0839405 -2.3805962 -1.5479751 16
6.6604776 -2.6061902 -1.5202504 24
8.0477896 -3.149034 -1.6282277 20
12.113729 -4.781496 -1.5229681 21
15.016428 -5.9272413 -1.50615 18
19.42457 -7.6672106 -1.4602821 9
27.512182 -10.859529 -1.3793354 11
60.810596 -24.002985 1.5178468 63
4.4060731 -1.7391524 -1.6005849 15
4.7291512 -1.866677 -1.586481 13
5.0214262 -1.9820429 -1.5479795 57
5.6059952 -2.2127824 -1.5777565 17
6.0696096 -2.3957789 -1.5461305 16
6.7491579 -2.6640084 -1.542289 16
8.0384102 -3.1728983 -1.6282277 20
8.8145103 -3.5077195 -1.5586268 33
9.3131542 -3.7061541 -1.4087102 6
12.046803 -4.7940054 -1.5162313 21
54.15728 -21.5518 0 60
4.4135227 -1.756354 -1.6050667 13
4.7398858 -1.8862295 -1.5918428 16
5.0605288 -2.013829 -1.5617614 45
5.5926032 -2.2255671 -1.5757304 17
6.0701284 -2.4155974 -1.5479751 13
6.7380576 -2.6813986 -1.5414574 21
8.003952 -3.1851594 -1.6230434 22
8.7521687 -3.5148005 -1.549548 58
10.549379 -4.236546 -1.5977073 11
11.976382 -4.8096189 -1.5092622 21
20.778399 -8.3444376 -1.5657538 47
30.090946 -12.084282 -1.5121914 16
49.924133 -20.049129 -1.2490659 29
4.4150162 -1.773035 -1.6076275 13
4.7410231 -1.9039568 -1.5942258 17
5.239717 -2.1042283 -1.6190939 19
5.5855837 -2.2431257 -1.5757304 17
6.0263915 -2.4201503 -1.5387527 16
6.7513847 -2.7113018 -1.5464473 22
7.9136577 -3.1780612 -1.60675 24
8.8703718 -3.5910685 -1.572245 21
9.42134 -3.8141217 -1.4284729 3
11.946333 -4.8363361 -1.5071715 21
14.6688 -5.9384961 -1.4764246 14
20.68104 -8.3724823 -1.5601733 31
30.084856 -12.17951 -1.5135888 16
49.88092 -20.19372 -1.2493907 30
4.4100475 -1.7853574 -1.6076275 13
4.7339182 -1.9164727 -1.5936301 16
5.2266922 -2.1159666 -1.6168888 20
5.5775046 -2.2579889 -1.575224 19
6.0665107 -2.4559574 -1.5507418 16
6.7673602 -2.7396884 -1.5518529 19
7.9557619 -3.2207992 -1.6171185 24
8.8572187 -3.6181712 -1.5719206 22
9.3066368 -3.8017583 -1.4128854 6
11.93292 -4.8745937 -1.5074039 21
14.790175 -6.0417819 -1.4905442 54
20.857801 -8.5204048 -1.5755197 31
20.789862 -8.4926519 -1.0472887 7
50.172623 -20.495501 -1.2583036 30
53.711361 -21.941072 0 59
4.4079247 -1.8006358 -1.6089079 13
4.6942925 -1.9176171 -1.5823108 19
5.1221328 -2.0923896 -1.5865686 33
5.5309787 -2.259403 -1.5640808 21
6.0947971 -2.4897227 -1.5599641 17
6.7587199 -2.7609348 -1.5518529 21
7.9674373 -3.2546957 -1.6215621 24
8.8361311 -3.6383824 -1.5699751 22
11.853134 -4.8806696 -1.499041 39
20.769356 -8.5520306 -1.5706367 15
31.055809 -12.787601 -1.5662282 17
54.156601 -22.299627 0 60
