# .PCD v0.7 - Point Cloud Data file format
VERSION 0.7
FIELDS x y z intensity
SIZE 4 4 4 4
TYPE F F F F
COUNT 1 1 1 1
WIDTH 1387
HEIGHT 1
VIEWPOINT 0 0 0 1 0 0 0
POINTS 1387
DATA ascii
-2.343688 6.026783 -0.90880042 5
-2.3723009 6.1003609 -0.76543313 10
-3.3705349 8.6673145 -0.86761075 11
-3.646646 9.3773336 -0.70356381 13
-5.4849763 14.104591 -0.70573896 10
-5.585896 14.364105 0 11
-1.7422385 4.4801583 -1.6242737 18
-1.8184981 4.6762595 -1.5656297 22
-1.8743805 4.8199606 -1.482929 14
-1.8597033 4.7822185 -1.3432457 7
-1.9298288 4.9625459 -1.2616204 7
-1.9980632 5.1380105 -1.1717904 4
-2.2163715 5.7468438 -1.0119563 60
-2.3238063 6.0254121 -0.75521189 7
-3.4330709 8.9016314 -0.66715091 9
-3.490916 9.0516186 -0.4524183 5
-5.6435575 14.633217 -0.36413097 13
-6.4820528 16.807356 0 16
-1.7324488 4.4920774 -1.6268345 18
-1.8500882 4.7971053 -1.6043534 17
-1.8256329 4.7336955 -1.4548141 25
-1.8623551 4.8289127 -1.3548952 7
-1.8928548 4.9079952 -1.2464035 6
-1.9421756 5.0358796 -1.1472567 4
-2.0389304 5.2867556 -1.067587 9
-1.9736141 5.1656804 -0.90852344 10
-2.1757004 5.6946154 -0.85674965 17
-2.3736336 6.2126799 -0.77774507 10
-2.381608 6.233552 -0.62256181 21
-5.371233 14.05851 -0.70182598 13
-5.6567836 14.805902 -0.36798397 13
-6.5148706 17.051834 0 22
-1.8411399 4.8189464 -1.6097152 20
-1.8910306 4.9495287 -1.5193131 15
-1.8195528 4.7624445 -1.3346351 12
-1.8600609 4.8684697 -1.2348756 6
-1.9584827 5.1693254 -0.90819919 4
-1.9555999 5.1617165 -0.77575094 4
-3.4175315 9.0204182 -0.89993715 9
-3.3717041 8.8994589 -0.6654768 12
-3.3982103 8.9694204 -0.44729409 5
-5.6373782 14.879602 -0.36942303 13
-6.4714818 17.081181 0 16
-1.6990484 4.4845605 -1.6204321 27
-1.795885 4.7401562 -1.581715 20
-1.8506384 4.8846755 -1.4978136 7
-1.8480617 4.8778744 -1.3655318 7
-1.8492171 4.8809237 -1.23672 4
-2.1957345 5.7955413 -1.3173286 12
-1.9002867 5.0157199 -1.0105602 1
-2.396143 6.3815932 -1.1199286 13
-2.5278602 6.7323923 -1.0106752 4
-2.4097362 6.4177957 -0.80167216 27
-2.5115659 6.6889963 -0.66659254 19
-3.3067129 8.8066931 -0.65780354 3
-3.3666682 8.9663715 -0.44664192 7
-4.8264079 12.854062 -0.31877708 10
-5.6727509 15.108109 0 12
-1.7589995 4.6847034 -1.6908579 14
-1.8200672 4.8473434 -1.6156727 10
-1.8455991 4.9153419 -1.5055313 12
-1.8329015 4.8815246 -1.3650253 3
-1.8456732 4.9155397 -1.2440979 4
-2.2012234 5.8624682 -1.3310508 18
-1.8798703 5.0066156 -1.0075978 1
-2.3909609 6.4256682 -1.1264135 10
-2.3945997 6.4354467 -0.96502638 5
-2.3851399 6.4100242 -0.79981375 5
-3.5847795 9.6340351 -0.95901638 7
-2.5159123 6.7614732 -0.50447881 4
-4.2213907 11.344918 -0.56449807 5
-5.5768719 14.987751 -0.3712799 13
-5.6355672 15.145494 0 12
-1.7477338 4.6970057 -1.6934189 14
-1.8070071 4.8563018 -1.6168643 11
-1.8162555 4.8811564 -1.4934033 13
-1.8629405 5.0066223 -1.3984545 3
-1.8541541 4.9830089 -1.2597759 1
-2.0637453 5.5462813 -1.2578658 12
-1.8698035 5.0250664 -1.0101899 2
-2.3745701 6.4296389 -1.1260891 13
-2.3301523 6.3093691 -0.94526374 6
-3.282712 8.8886213 -1.1080778 7
-3.5258191 9.5468836 -0.71165556 6
-5.4979811 14.886919 -0.36844817 13
-5.5320282 14.979109 0 7
-1.7566016 4.7563615 -1.7132661 13
-1.8149793 4.9144316 -1.6347368 10
-1.7989956 4.8711519 -1.4889932 18
-1.8245606 4.9403749 -1.3787009 3
-1.8278149 4.9491868 -1.2500925 1
-1.8631293 5.0448074 -1.1430986 3
-1.8704576 5.0646505 -1.0172257 1
-2.3498461 6.4282112 -1.124468 10
-2.4368427 6.6661983 -0.83001292 10
-3.2707944 8.947547 -0.88879013 9
-4.5085397 12.333508 -0.61238581 13
-4.8053493 13.145457 -0.32495117 5
-5.4933076 15.027428 0 4
-1.7349633 4.7461452 -1.7075039 13
-1.7855613 4.8845606 -1.6228218 16
-1.77227 4.8482008 -1.4801728 41
-1.795545 4.9118719 -1.3690773 3
-1.8160686 4.9680161 -1.2533203 3
-1.8691711 5.1132827 -1.0257427 1
-2.3148465 6.3842463 -1.1157135 10
-2.3716581 6.5409303 -0.97783029 15
-2.37063 6.538095 -0.81328726 12
-3.4645748 9.5551472 -0.94824094 9
-3.3124015 9.1354599 -0.45316362 7
-5.4368043 14.994472 -0.37030503 13
-5.5234876 15.23354 0 4
-1.7096152 4.715045 -1.6946993 14
-1.7994509 4.9628077 -1.6472474 10
-1.8388675 5.071517 -1.546877 13
-1.8057104 4.9800711 -1.2551647 3
-2.3106792 6.3727536 -1.2771792 11
-2.3141193 6.445353 -1.1251165 8
-2.3162971 6.4514184 -0.96335632 10
-2.3648472 6.5866408 -0.81839788 10
-3.4708784 9.6671915 -0.95827335 7
-4.7479792 13.22421 -0.65524256 9
-5.2721105 14.684035 -0.36222771 13
-5.4364071 15.14164 0 16
-1.6909533 4.709692 -1.6908579 13
-1.7825614 4.9648418 -1.6460561 10
-1.8417665 5.1297417 -1.5628638 20
-1.7691882 4.9275942 -1.3705968 5
-1.7887417 4.9820557 -1.2542424 1
-2.3285048 6.4854198 -1.2982867 10
-2.2603807 6.3513865 -1.1076075 13
-2.3513975 6.6071324 -0.98562396 2
-3.3821321 9.5033674 -1.1796265 10
-2.2333748 6.2755041 -0.62144715 7
-2.3673842 6.6520529 -0.49373633 4
-4.1570706 11.680848 -0.57819355 2
-4.1041541 11.532159 -0.28419298 6
-5.3954463 15.160529 0 16
-1.6765252 4.7108259 -1.6895775 13
-1.7782928 4.9967804 -1.6549922 10
-1.8261462 5.1312423 -1.5617614 15
-2.0801973 5.8450937 -1.470046 16
-2.0746791 5.8295889 -1.3152494 11
-1.8009942 5.0605679 -1.0120413 1
-2.2662678 6.4246764 -1.1192801 12
-2.2571695 6.3988838 -0.95361418 5
-3.3126249 9.3910103 -1.1645269 13
-3.3664861 9.5437021 -0.94415373 7
-3.9861183 11.300306 -0.83791482 18
-3.3887329 9.6067696 -0.47505784 7
-4.608026 13.063362 -0.32160881 2
-6.3543758 18.014116 0 18
-1.6753377 4.7494397 -1.7017419 13
-1.7649658 5.0035276 -1.6555879 10
-1.8476225 5.2378526 -1.5926328 12
-2.0280507 5.749351 -1.5959907 21
-2.0172529 5.7187409 -1.4368454 9
-2.0928807 5.9331388 -1.3372881 7
-1.7986223 5.0989408 -1.0187069 1
-2.2955039 6.5659451 -0.97755194 5
-2.2440274 6.4187045 -0.79516768 7
-2.2462649 6.4251041 -0.63500935 7
-2.733814 7.8196654 -0.57925779 6
-3.3513451 9.5860205 -0.47356716 5
-5.1548491 14.744674 -0.36264548 13
-1.6658208 4.7648311 -1.7055832 13
-1.7465768 4.9958215 -1.6514176 10
-1.738453 4.9725847 -1.5104928 33
-2.0366006 5.8253908 -1.4622071 9
-2.1686285 6.2030373 -1.3967509 28
-2.2786322 6.5176864 -1.3008788 7
-2.2008119 6.355567 -1.1050135 5
-2.2118518 6.3874483 -0.94999564 3
-2.3003719 6.6430793 -0.82211471 10
-3.3831387 9.7699242 -0.96458995 2
-2.2340236 6.4514766 -0.4774133 3
-2.7051148 7.8119073 -0.38552445 5
-5.078361 14.665436 -0.36032441 9
-5.8054986 16.765284 0 21
-1.6460947 4.7536387 -1.6998212 13
-1.7267469 4.9865489 -1.6466517 11
-1.8016964 5.2029901 -1.5788509 10
-2.0632451 5.9582977 -1.4940242 17
-2.2612114 6.5299907 -1.3019897 7
-2.2350862 6.5170135 -1.1319256 7
-2.2301569 6.5026412 -0.96613973 5
-2.9759967 8.6773443 -1.0727679 12
-2.3037086 6.7171011 -0.66250533 7
-3.2038636 9.341754 -0.69058907 3
-4.9505033 14.434566 -0.35428959 12
-5.7472982 16.757841 0 15
-1.6307546 4.7549171 -1.6985407 13
-1.6822149 4.904964 -1.6180557 11
-1.791865 5.2246795 -1.5838124 14
-1.9862119 5.7913518 -1.4506791 9
-2.0632384 6.015944 -1.3518419 30
-2.2360892 6.519938 -1.2986569 7
-2.2144718 6.5198784 -1.131277 5
-2.2102177 6.5073538 -0.96586144 2
-3.0352075 8.9363003 -1.103664 10
-2.2818482 6.7182493 -0.66194797 4
-4.1551237 12.233573 -0.60251009 8
-4.9250183 14.500308 -0.35554299 12
-5.7007709 16.784288 0 5
-1.6160308 4.7579403 -1.6979005 13
-1.661515 4.8918557 -1.6120982 11
-1.6224012 4.7766962 -1.4465449 11
-1.9538389 5.7525196 -1.5904191 21
-1.9884233 5.8543434 -1.4649737 11
-2.1139586 6.2239466 -1.3971667 16
-2.2546608 6.6382041 -1.3208752 19
-2.2328644 6.6386552 -1.1507316 5
-2.2047887 6.555182 -0.97198498 5
-2.2557161 6.7065969 -0.82745767 2
-2.3132579 6.8776779 -0.50740856 4
-4.7385507 14.088452 -0.34509814 12
-5.596108 16.638103 0 10
-1.6031132 4.7663064 -1.6991808 13
-1.660382 4.9365759 -1.6252047 11
-1.8787812 5.5859108 -1.5428078 19
-1.9611162 5.8307052 -1.4575958 16
-2.0512011 6.0985422 -1.3676432 30
-2.2274342 6.6225104 -1.3164314 14
-2.214318 6.6448646 -1.1507316 5
-2.1770837 6.5331287 -0.96780986 3
-2.1911349 6.575295 -0.81049961 7
-3.71702 11.154266 -0.82214975 7
-3.7094193 11.131457 -0.54716897 7
-6.068738 18.211449 0 19
-1.5868027 4.7617769 -1.6959798 13
-1.6592662 4.9792299 -1.6377155 10
-1.8167083 5.4516921 -1.6477602 6
-1.9194504 5.7600069 -1.5894061 17
-1.922678 5.7696924 -1.4409956 11
-2.1522925 6.458734 -1.4470656 26
-2.156739 6.4720774 -1.2853259 9
-2.2174735 6.7207484 -1.1627284 6
-2.1597912 6.5459247 -0.80608594 7
-3.2869697 9.9621916 -0.97870952 7
-3.673908 11.13493 -0.81991762 7
-4.3468013 13.174343 -0.64695066 18
-4.6711159 14.157281 -0.3461194 12
-4.6817746 14.189586 0 10
-1.5602007 4.7286773 -1.6825348 13
-1.6534593 5.0113268 -1.6466517 10
-1.8065495 5.4753146 -1.6532729 6
-1.9629757 5.9494133 -1.6400564 18
-1.9165273 5.8086367 -1.4492956 11
-2.0252388 6.1381207 -1.3738806 17
-2.1603131 6.5475059 -1.2990272 8
-2.2116156 6.7704468 -1.170186 5
-2.876838 8.806901 -1.0834538 12
-2.9711044 9.09548 -0.89269161 7
-3.472964 10.631829 -0.78210962 7
-3.5614119 10.902596 -0.53487092 6
-3.8021085 11.639444 -0.28428581 9
-4.8694267 14.906838 0 11
-1.5608708 4.7783136 -1.6985407 13
-1.6302823 4.9908042 -1.6383113 11
-1.8093972 5.5391312 -1.6709137 7
-1.961534 6.0048695 -1.6537319 20
-1.912577 5.8549967 -1.4594404 9
-2.1801393 6.6740885 -1.4923903 44
-2.1762714 6.6622477 -1.3205049 15
-2.1908445 6.7668257 -1.1685648 17
-3.571703 11.03186 -1.0818197 17
-3.6804888 11.367866 -0.83554304 16
-3.5359354 10.921386 -0.53533679 6
-4.7354717 14.626373 -0.35693562 12
-4.841475 14.953784 0 3
-1.5536091 4.7986069 -1.7043028 13
-1.598981 4.9387465 -1.6198429 18
-1.7516615 5.4103284 -1.6306707 14
-1.9458075 6.0099835 -1.6537319 20
-2.1224997 6.5557303 -1.2982867 12
-2.1424465 6.6849656 -1.1533254 3
-2.9082384 9.0744276 -1.11435 15
-3.6759677 11.469934 -0.84223968 24
-4.1553144 12.965614 -0.63493216 2
-3.9115665 12.205061 -0.29756242 2
-5.2023821 16.232725 0 9
-1.5399414 4.8050003 -1.7049431 14
-1.6256897 5.072556 -1.6621412 16
-1.7837129 5.5656281 -1.6758753 12
-1.9067075 5.9494019 -1.6354978 24
-2.1720686 6.7773943 -1.6863105 14
-2.9055309 9.1649418 -1.1243389 27
-3.0384576 9.5842333 -0.93802285 4
-3.0116601 9.4997053 -0.69686717 3
-4.4556832 14.0546 -0.68757141 9
-5.1108675 16.121254 0 13
-1.4979272 4.7249246 -1.6748521 17
-1.5733976 4.9629822 -1.624609 45
-1.7871361 5.6371789 -1.6957211 10
-1.8985333 5.9885602 -1.6446149 22
-2.1407695 6.7526474 -1.6784716 14
-2.1472366 6.773047 -1.5102707 20
-2.1851676 6.892693 -1.3623492 12
-2.3061984 7.3411179 -1.2642158 21
-2.1161153 6.7360435 -0.99230427 1
-2.7142334 8.6399794 -1.0590621 32
-2.9679983 9.4477673 -0.92390323 7
-4.4410291 14.136736 -0.69101864 13
-3.71297 11.81917 -0.28762817 6
-5.0608549 16.109774 0 13
-1.4429625 4.5932555 -1.6268345 13
-1.6033151 5.1036916 -1.6692901 25
-1.7752535 5.6510081 -1.6984775 10
-1.9246007 6.1264119 -1.6810831 15
-2.0799232 6.6208358 -1.6443489 19
-2.1459153 6.8309026 -1.5219136 67
-2.1347184 6.7952609 -1.3419825 26
-2.0957465 6.7410989 -1.1598103 2
-2.1143451 6.8009229 -1.0009331 1
-2.8012221 9.0103054 -1.1034317 25
-2.8979766 9.3215218 -0.91071266 9
-2.9627016 9.5297136 -0.69784379 6
-3.6796246 11.835741 -0.57800722 7
-4.9138727 15.805777 0 13
-1.4214512 4.5721865 -1.6178713 15
-1.5348848 4.9370522 -1.6132897 87
-1.7556236 5.6470723 -1.6957211 10
-2.0394685 6.5600772 -1.6277486 42
-2.1337671 6.8633943 -1.5277352 96
-2.1979833 7.0699496 -1.394936 24
-2.0676131 6.7208786 -1.1552709 3
-2.0662053 6.7163019 -0.98757237 4
-2.585813 8.4053135 -1.0283983 5
-2.9429147 9.5660896 -0.93374979 7
-3.5175436 11.433949 -0.83651966 18
-2.9730465 9.6640348 -0.4715175 5
-4.4770298 14.552806 -0.35350043 12
-4.8710737 15.833666 0 4
-1.605561 5.2189555 -1.7038436 21
-1.7332089 5.6338806 -1.6902084 10
-1.6048944 5.2167883 -1.4288447 1
-2.0337303 6.6107407 -1.6388154 19
-2.1185718 6.8865223 -1.5314776 36
-2.1920238 7.1252813 -1.4045639 20
-2.873471 9.4340143 -0.68961251 6
-3.6393402 11.948471 -0.58247924 5
-4.2027593 13.798256 -0.33488536 8
-5.6077142 18.410923 0 6
-1.5681738 5.1485372 -1.679418 16
-1.7157896 5.6331811 -1.6885545 10
-1.6151258 5.3026872 -1.4511309 7
-2.016964 6.6219792 -1.6401987 22
-2.1192842 6.957911 -1.5460315 48
-2.1852901 7.1746182 -1.4130809 20
-2.0515957 6.8123975 -1.168889 12
-2.6219852 8.7063961 -1.2778875 13
-2.7398136 9.0976496 -1.1110976 15
-2.8924124 9.6043596 -0.9357934 7
-3.1775033 10.551014 -0.77052999 1
-3.5637593 11.833591 -0.57633024 2
-3.6796789 12.218506 -0.29626262 7
-5.5734882 18.506968 0 6
-1.5486867 5.1424699 -1.6758435 15
-1.6997458 5.6440668 -1.6902084 10
-1.5928781 5.2892089 -1.4460657 7
-2.0073724 6.6655521 -1.6494211 16
-2.1335168 7.0844193 -1.5726441 30
-2.1944761 7.2868366 -1.433818 41
-2.0269852 6.7950506 -1.1649982 15
-2.611073 8.7530851 -1.2837328 13
-2.7375662 9.1771269 -1.119925 50
-2.8097668 9.4191647 -0.91702926 9
-2.8783996 9.6492424 -0.70412189 4
-3.5224888 11.808419 -0.57465321 2
-3.7877119 12.697525 -0.3076359 10
-5.4444094 18.251263 0 18
-1.5581411 5.2233472 -1.7008648 13
-1.6833159 5.6429701 -1.6885545 10
-1.8279097 6.1276913 -1.673992 9
-2.0377586 6.8311667 -1.6890773 17
-2.1501944 7.2080846 -1.5988411 18
-2.1652796 7.2586546 -1.4271524 39
-2.2313433 7.561964 -1.295343 12
-2.5744386 8.7247038 -1.2784443 21
-2.7384317 9.2804728 -1.1315402 15
-2.864435 9.7074947 -0.70774919 6
-3.6429205 12.345761 -0.60027409 8
-8.9522028 30.338781 0 18
-1.546417 5.2407665 -1.7050352 13
-1.6752691 5.677443 -1.6973749 10
-1.8042427 6.1145315 -1.668927 9
-2.0026083 6.7867866 -1.6766272 21
-2.1199374 7.184412 -1.5921879 22
-2.1737678 7.3668418 -1.4471489 35
-2.2028162 7.5477114 -1.2917764 12
-2.5679626 8.7988453 -1.2881863 19
-2.6975291 9.2427912 -1.1259649 47
-2.8040333 9.6077166 -0.93374979 9
-2.8300319 9.6967974 -0.70635402 3
-4.4567714 15.270643 -0.3693302 13
-5.1348491 17.594004 0 5
-1.5217683 5.2141743 -1.6949073 12
-1.6573403 5.6786971 -1.6962724 10
-1.7953091 6.151432 -1.6775377 9
-1.9808283 6.7870936 -1.6752437 21
-2.0838149 7.1399655 -1.5809606 19
-2.0792174 7.1242127 -1.3982687 26
-2.2153792 7.6653128 -1.3109066 23
-2.5218244 8.7256269 -1.2764958 39
-2.6898699 9.3070717 -1.132934 20
-2.7064426 9.3644142 -0.90941215 21
-2.6833227 9.2844181 -0.67580074 6
-3.8022277 13.15588 -0.31794149 2
-4.5301404 15.674491 0 8
-1.5059928 5.2108035 -1.6925243 13
-1.641935 5.6811695 -1.6957211 8
-1.7915549 6.1988616 -1.6891872 11
-1.9371177 6.7025151 -1.6531101 23
-2.0423033 7.0664616 -1.5634961 28
-2.0430977 7.0692105 -1.3864189 7
-2.4786234 8.678278 -1.2684237 33
-2.6218815 9.1798611 -1.1164405 22
-2.6376319 9.2350073 -0.89603573 42
-2.607018 9.12782 -0.66380262 6
-3.7940166 13.283798 -0.64424884 9
-3.4319565 12.016136 -0.29013497 7
-4.4726324 15.659801 0 12
-1.4859436 5.2026587 -1.6883541 12
-1.6172137 5.6622682 -1.6885545 10
-1.7789776 6.2286444 -1.6957716 11
-1.9203255 6.7235384 -1.6567991 23
-2.0582366 7.2063999 -1.5930195 28
-2.4200311 8.5693293 -1.2514447 25
-2.5406468 8.9964294 -1.0932105 35
-2.661094 9.4229326 -0.91349936 9
-2.5880585 9.1643143 -0.66589528 6
-3.8255818 13.546384 -0.32680804 8
-4.4663744 15.815431 0 12
-1.4616804 5.1758099 -1.6782265 10
-1.5988396 5.6614909 -1.6869007 12
-1.7236819 6.1035571 -1.6603165 15
-1.8792127 6.6542916 -1.6383543 32
-2.0309987 7.1917653 -1.5884454 21
-2.3474622 8.3963404 -1.2252802 30
-2.545435 9.1044445 -1.1055224 10
-2.4256968 8.6761675 -0.84048629 9
-2.7708814 9.9108143 -0.71960783 1
-3.5089037 12.550553 -0.60772741 11
-3.5144625 12.570436 -0.30304018 7
-4.4475751 15.907968 0 4
-1.4399009 5.1501989 -1.6686944 10
-1.5746956 5.6323295 -1.6769778 13
-1.7399971 6.2235756 -1.6917197 19
-1.8607384 6.6554394 -1.637432 29
-2.0116382 7.1951737 -1.5880296 15
-2.077116 7.4293737 -1.453444 35
-2.5564814 9.2560043 -1.122945 60
-2.461514 8.9121647 -0.86259454 4
-3.1253521 11.31566 -0.82089418 1
-3.7577333 13.605261 -0.65822393 30
-2.645072 9.5767555 -0.2306689 7
-4.5695562 16.54455 0 14
-1.4232043 5.1528578 -1.6680987 10
-1.5267936 5.527914 -1.6444525 43
-1.6884987 6.1133838 -1.6603165 22
-1.8605431 6.7362885 -1.6558768 16
-1.9952717 7.2240868 -1.5930195 16
-2.1348677 7.7295094 -1.5108413 16
-2.4426889 8.9350901 -1.3018253 37
-2.6093671 9.5447807 -0.92316014 2
-2.6968791 9.8648901 -0.4769212 8
-3.7794538 13.824829 -0.33274996 11
-4.4624128 16.323021 0 9
-1.4895034 5.448441 -1.6196452 20
-1.667387 6.0991197 -1.6552514 24
-1.8295591 6.6923275 -1.6438876 26
-1.9696469 7.2047534 -1.5876138 13
-2.0104494 7.3540049 -1.4364101 11
-2.3041654 8.52777 -1.451303 24
-2.3763905 8.7950764 -1.2803926 28
-2.4550073 9.0860395 -1.1006441 5
-2.5779209 9.5409451 -0.92204547 4
-2.8357296 10.495102 -0.76020604 3
-2.6691625 9.8786335 -0.47720066 6
-3.7003479 13.695074 -0.3293612 11
-4.4233551 16.370941 0 4
-1.4542758 5.382309 -1.5986967 13
-1.6634153 6.1563387 -1.6694336 18
-1.8360925 6.7954211 -1.6678659 16
-1.9406084 7.1822371 -1.5813764 13
-1.9353051 7.1626096 -1.3978984 11
-2.2864871 8.5631704 -1.4561666 31
-2.3829813 8.9245529 -1.2982067 76
-2.3389726 8.7597351 -0.84587407 6
-3.5292649 13.217525 -0.9566403 9
-3.2727385 12.256802 -0.5916096 7
-3.643187 13.644176 -0.3278757 5
-4.9185705 18.420641 0 18
-1.4303627 5.3568816 -1.5898763 14
-1.6226789 6.0771284 -1.6466409 20
-1.8360019 6.876049 -1.6863105 17
-1.9202969 7.1917439 -1.582208 15
-1.9125215 7.1626244 -1.3967874 7
-1.9360603 7.343255 -1.2476796 2
-2.3746259 9.0066833 -1.3090622 49
-2.3832517 9.0394001 -1.0932105 15
-3.0564647 11.59282 -0.55909437 7
-3.588074 13.609154 -0.3267616 2
-4.180501 15.856161 0 4
-1.3258618 5.028842 -1.6228218 16
-1.4287217 5.4189777 -1.6069659 22
-1.6193646 6.1420646 -1.6628491 13
-1.8099273 6.8648472 -1.6821606 21
-1.862285 7.0634336 -1.5526847 24
-1.8739775 7.1077819 -1.3849378 7
-2.2755544 8.7234917 -1.2670319 90
-2.315958 8.8783817 -1.0730003 5
-2.4618928 9.4378319 -0.90996951 7
-3.5934062 13.775565 -0.66390705 6
-3.5892768 13.759734 -0.33015037 11
-9.8348045 37.702385 0 27
-1.4135603 5.4189787 -1.6058633 13
-1.5676298 6.0096145 -1.6258743 20
-1.8803277 7.2083631 -1.5834556 12
-1.8657818 7.1526003 -1.3927141 9
-2.2648604 8.7891989 -1.4911847 13
-2.2427397 8.7033548 -1.2631351 13
-2.2806804 8.8505907 -1.0688188 5
-2.2271612 8.6428995 -0.83268338 6
-2.607264 10.117958 -0.73062932 4
-3.2538948 12.627324 -0.60810012 2
-3.5509255 13.780005 -0.33038247 8
-1.3955551 5.4157028 -1.6036582 10
-1.5184084 5.892457 -1.5929517 12
-1.7565033 6.8164277 -1.6678659 16
-1.8657641 7.2404332 -1.5892771 13
-1.8528868 7.1904607 -1.3990093 7
-2.2148614 8.7082872 -1.4762696 15
-3.323535 13.067318 -0.62878317 8
-3.5046625 13.779466 -0.33010396 8
-9.6195898 37.82185 0 27
-1.3785353 5.4200597 -1.6036582 11
-1.4612603 5.7453141 -1.5519248 27
-1.7029415 6.6955452 -1.636971 16
-2.1964643 8.7251568 -1.4782149 13
-2.2487297 8.9327745 -1.2945882 12
-2.7937536 11.097808 -0.80024624 18
-2.7414482 10.890031 -0.52369094 9
-2.795428 11.104459 -0.26585647 6
-9.5295744 37.854942 0 27
-1.3671629 5.4308696 -1.6058633 11
-1.4859465 5.9027214 -1.5934581 14
-1.6941755 6.7298822 -1.6443489 16
-1.5387502 6.1124763 -1.3397831 1
-1.9292904 7.6638446 -1.4889933 16
-2.2440529 9.0339785 -1.3082273 100
-2.5251451 10.165584 -0.97722322 7
-2.504441 10.082235 -0.72644395 4
-3.7154133 14.957296 -0.35781762 9
-1.2813724 5.1584754 -1.6585667 8
-1.345461 5.4164796 -1.6003506 11
-1.4613329 5.8829498 -1.5868735 17
-1.5571432 6.2686577 -1.5304526 16
-1.4822834 5.9672909 -1.306933 2
-2.188252 8.9224176 -1.5093421 67
-2.2879989 9.3291283 -1.3499793 21
-2.9318435 11.954351 -0.57400101 2
-3.677681 14.995443 -0.35846755 9
-1.2255859 4.9972262 -1.605545 12
-1.3335038 5.4372525 -1.6053121 10
-1.4346523 5.8496776 -1.5767435 17
-1.571911 6.409338 -1.5636531 37
-1.4613079 5.9583631 -1.3040222 5
-2.0570586 8.3874874 -1.6271167 10
-2.2058129 9.0968971 -1.5378753 49
-2.0871503 8.6075258 -1.2447643 4
-2.2113609 9.1197777 -1.097392 2
-2.6977427 11.125643 -0.80052531 5
-3.3011813 13.614258 -0.65328604 9
-3.3062344 13.635097 -0.32574031 8
-1.3174533 5.4332519 -1.603107 9
-1.4248054 5.8759775 -1.5828216 14
-1.5404516 6.3529091 -1.5488973 13
-2.0151789 8.3107119 -1.6111937 24
-2.2378185 9.3571444 -1.5806751 25
-2.2342327 9.3421507 -1.3499793 10
-2.6304126 10.998725 -1.0550667 15
-3.2736166 13.688198 -0.3267616 11
-1.3030618 5.4485822 -1.6064146 9
-1.4090396 5.8917141 -1.5858605 14
-1.4258809 5.9621339 -1.4525235 11
-2.1096036 8.931201 -1.5077208 79
-2.204495 9.3329315 -1.3477523 7
-2.5417058 10.760546 -1.2929897 15
-2.3959811 10.143607 -0.97239286 2
-2.6110401 11.054078 -0.79424721 30
-2.6995378 11.428741 -0.54763484 9
-3.2556055 13.782906 -0.32880414 11
-1.1024199 4.6671958 -1.6204321 15
-1.1081961 4.6916504 -1.5042676 11
-1.2865167 5.4465866 -1.6047609 9
-1.4117078 5.9765949 -1.6076403 13
-1.4168323 5.9982901 -1.4603624 14
-1.7741199 7.5109 -1.6404234 72
-2.0087521 8.5042362 -1.6463724 17
-2.1684866 9.296463 -1.568354 15
-2.1550262 9.2387581 -1.3332784 19
-2.4764462 10.616709 -1.2748702 21
-2.5525115 10.942807 -0.78573692 7
-2.6821313 11.498496 -0.55061615 2
-3.1694081 13.587489 -0.32392988 11
-3.5364463 15.161009 0 3
-1.0992804 4.7126966 -1.6351576 15
-1.1519033 4.9382949 -1.5823108 16
-1.2800345 5.4876037 -1.6157863 10
-1.4125911 6.0558829 -1.6279004 13
-1.3876963 5.9491572 -1.4474512 13
-1.9912436 8.5366096 -1.6515567 17
-2.3909981 10.389652 -1.4983377 19
-2.4302301 10.560127 -1.2672043 39
-2.5647738 11.144763 -0.79968822 7
-3.2667618 14.195126 -0.67927957 12
-3.1846795 13.838451 -0.32968616 11
-1.1222582 4.8765712 -1.5614594 33
-1.2654699 5.4988718 -1.6179914 11
-1.3607692 5.9129777 -1.5883931 23
-1.4228481 6.1827307 -1.5032465 15
-2.1434317 9.4419622 -1.5907266 13
-2.3650322 10.418128 -1.2493169 55
-2.5004609 11.014701 -1.0537663 27
-2.5087354 11.05115 -0.79243356 7
-3.1835074 14.023566 -0.67061508 12
-3.2556026 14.34115 -0.34143081 12
-1.1390642 5.0176554 -1.605545 25
-1.2512805 5.5119758 -1.6207477 10
-1.3038172 5.743403 -1.5417948 25
-1.4217346 6.2628374 -1.5216913 23
-1.5563598 6.8558707 -1.3245782 1
-2.0540512 9.1667471 -1.5433874 79
-2.133086 9.5194607 -1.1408322 35
-2.50191 11.165435 -1.0675142 40
-2.6104796 11.649957 -0.83484548 7
-2.557225 11.412292 -0.54539877 9
-3.2478898 14.494568 -0.34486601 6
-1.1304733 5.0450358 -1.6132897 18
-1.2354614 5.5135732 -1.6201965 9
-1.3326153 5.9471478 -1.5954841 14
-2.0873058 9.4464445 -1.5894297 27
-2.3365641 10.574503 -1.5219972 17
-2.3234124 10.514983 -1.259306 18
-2.3630733 10.694476 -1.0218114 15
-2.5780509 11.667392 -0.83554304 8
-2.5586953 11.579794 -0.55303848 9
-3.1220362 14.129286 -0.33595309 11
-1.0990207 4.9737983 -1.5894598 21
-1.2107991 5.4796696 -1.609171 13
-1.3316599 6.0266452 -1.6157442 15
-1.4775919 6.6870837 -1.6226763 15
-1.563406 7.0754499 -1.54021 3
-2.0689321 9.4969454 -1.5968872 21
-2.332798 10.70816 -1.2816069 18
-2.3444738 10.761756 -1.0275706 30
-2.4308832 11.158397 -0.79857212 3
-3.0997014 14.228451 -0.6790933 12
-3.0205178 13.864976 -0.32945403 11
-1.104579 5.0703096 -1.6192472 12
-1.1859425 5.44379 -1.5975943 15
-1.329012 6.1005168 -1.6344849 20
-1.4353762 6.5887566 -1.5977758 24
-1.4162329 6.5008841 -1.4142154 5
-1.5692639 7.2033367 -1.3890111 3
-1.8474956 8.5958319 -1.444494 5
-1.9959573 9.2865782 -1.3349484 6
-2.3425426 10.899134 -1.3036755 39
-2.4148409 11.235516 -1.0721588 30
-2.3141909 10.767222 -0.7701115 7
-2.4818871 11.547462 -0.55080247 2
-2.9880924 13.90268 -0.33015037 8
-1.0960331 5.0995069 -1.6275877 15
-1.1606374 5.4000907 -1.5838124 16
-1.3205098 6.1439281 -1.6451213 18
-1.5206469 7.0751052 -1.3634601 1
-2.2413237 10.580927 -1.5200487 9
-2.2846682 10.785549 -1.2892728 34
-2.3051474 10.882228 -1.0377889 40
-2.4467828 11.550865 -0.82563764 7
-2.3954458 11.308512 -0.53906345 9
-5.4826198 25.882559 -0.61425054 8
-1.0880179 5.1363568 -1.6383113 12
-1.1613412 5.4825039 -1.6069659 19
-1.2685933 5.9888234 -1.6025751 25
-1.4099822 6.6562977 -1.4462339 5
-1.4247044 6.7257991 -1.2953241 3
-1.4492602 6.9432716 -1.1653223 1
-2.1998048 10.539062 -1.5130901 9
-2.2847238 10.9459 -1.3076246 36
-2.3212702 11.120991 -1.0598971 25
-2.5103393 12.026803 -0.85912079 6
-2.8072381 13.449218 -0.64070851 11
-3.0072651 14.407529 -0.34170935 9
-5.4403625 26.064274 0 13
-0.99303043 4.7575169 -1.6422001 13
-1.0665326 5.1096592 -1.6287793 18
-1.1713891 5.6120172 -1.6439012 10
-1.2444944 5.9622579 -1.5944711 25
-1.3503876 6.4695821 -1.5659586 11
-1.4226049 6.8155689 -1.4799156 9
-1.3947039 6.6818972 -1.2860665 6
-1.4302408 6.9552741 -1.1666194 1
-2.1689208 10.547482 -1.5133684 9
-2.2262259 10.826157 -1.2925251 86
-2.2910678 11.141484 -1.0611976 25
-2.393867 11.641397 -0.83107865 5
-2.5113895 12.212911 -0.5814544 10
-2.9061038 14.13241 -0.33497822 8
-1.0713624 5.2100453 -1.6597581 15
-1.1450503 5.5683904 -1.6301194 13
-1.2369292 6.0151982 -1.6076403 20
-1.3566632 6.597466 -1.5959314 15
-1.3925235 6.7718549 -1.46952 23
-1.3907052 6.7630124 -1.3008788 7
-1.4120281 6.9589944 -1.1666194 1
-2.1440585 10.56671 -1.5153168 11
-2.1579804 10.635323 -1.2690626 31
-2.2721891 11.198185 -1.066028 15
-2.3534722 11.598779 -0.55192047 9
-2.8690975 14.139969 -0.33497822 8
-8.9985714 44.348274 0 35
-0.96192217 4.7407064 -1.6345173 15
-1.1147949 5.4941196 -1.6075171 20
-1.1938612 5.8837881 -1.5716785 27
-1.1354415 5.5958738 -1.352922 5
-1.412526 6.9614482 -1.5098549 9
-1.3964459 6.8821998 -1.323097 5
-1.3662426 6.8373585 -1.1455437 1
-2.1115401 10.567199 -1.5144819 9
-2.1684604 10.852056 -1.2941511 49
-2.2846141 11.433348 -1.0877647 22
-2.2662716 11.341551 -0.80875659 3
-2.3065286 11.543017 -0.54893917 9
-2.7922709 13.973914 -0.3308467 8
-5.1678967 25.862728 0 13
-0.94562745 4.7323909 -1.6306759 15
-1.0770197 5.3899426 -1.5760945 20
-1.2029407 6.0201144 -1.6071336 20
-1.391486 6.9636893 -1.509439 9
-1.3725585 6.8689661 -1.3197643 7
-1.3383718 6.7966113 -1.1380861 2
-2.0709224 10.5167 -1.5064098 13
-2.1120455 10.725535 -1.2783546 21
-2.2249722 11.299007 -1.0743883 17
-2.802681 14.232767 -0.33678865 8
-5.0821218 25.80838 0 39
-0.93240702 4.7350135 -1.6306759 13
-1.0195652 5.1776261 -1.6466517 25
-1.0783058 5.4759264 -1.6003506 11
-1.1408908 5.7937503 -1.5458468 51
-1.2851807 6.5264931 -1.5761033 25
-1.3807254 7.0116949 -1.5190029 5
-1.3621031 6.9171252 -1.3282812 5
-1.6535803 8.5387602 -1.4289303 5
-2.0216784 10.439546 -1.4944409 26
-2.1459405 11.08121 -1.3199366 31
-2.1917329 11.317673 -1.075503 27
-2.25089 11.623148 -0.82786983 7
-2.2862227 11.805599 -0.56077135 12
-2.7784772 14.347504 -0.33929545 2
-4.9930248 25.782986 0 39
-0.90275574 4.6616511 -1.6044263 19
-1.0174491 5.2539048 -1.669886 13
-1.0640199 5.4943871 -1.6047609 11
-1.1499029 5.93787 -1.583328 25
-1.2887191 6.6546888 -1.606076 25
-1.3330251 6.8834763 -1.4903111 9
-1.3467159 6.9541736 -1.3345764 7
-1.6434177 8.6150723 -1.4409273 12
-2.0207295 10.593004 -1.5155952 26
-2.1432841 11.235456 -1.3375915 21
-2.1358724 11.196603 -1.063427 20
-2.2004857 11.535316 -0.82117319 7
-2.2259259 11.668678 -0.55397016 9
-2.7447793 14.388595 -0.34008458 9
-4.9191484 25.787004 0 13
-0.89115781 4.6715989 -1.6069874 18
-0.97809213 5.1273232 -1.6287793 33
-1.0508375 5.508667 -1.6080683 11
-1.2340329 6.469008 -1.5604252 11
-1.3324974 6.9851751 -1.5115181 8
-1.3431318 7.0409226 -1.3504994 1
-1.9626139 10.44678 -1.4938841 73
-2.0154347 10.72794 -1.2764963 15
-2.1314344 11.345393 -1.0769892 20
-2.1018479 11.187907 -0.53086478 9
-3.0213366 16.082245 -0.37991431 14
-4.8644662 25.893024 0 13
-0.87530845 4.6591716 -1.6018654 19
-0.98914939 5.2651343 -1.6716732 13
-1.0411282 5.5418115 -1.6168888 10
-1.2116493 6.4494772 -1.5548918 11
-1.3137062 6.9927144 -1.5123497 11
-1.3285429 7.0716887 -1.3556838 1
-1.6288069 8.822629 -1.4739997 12
-1.9765252 10.706086 -1.5300692 29
-2.1465316 11.626946 -1.382658 55
-2.1004779 11.377491 -1.0794044 10
-2.1953759 11.891519 -0.84558797 8
-2.2520278 12.19838 -0.57847303 10
-2.3761992 12.870969 -0.30387574 5
-8.1609907 44.204987 0 35
-0.86857742 4.7047544 -1.6165907 18
-0.96497655 5.226912 -1.6585667 16
-1.0272018 5.563962 -1.6224015 12
-1.0846945 5.8753781 -1.5640808 23
-1.2845519 6.9579301 -1.3330952 5
-1.6040639 8.8091078 -1.4710816 16
-1.9659725 10.796618 -1.5423164 29
-2.1405365 11.75528 -1.397293 49
-2.1293948 11.694092 -1.1089441 10
-2.1856155 12.002841 -0.8531217 26
-2.2086167 12.129157 -0.57493275 7
-2.6227036 14.403216 -0.33989891 2
-3.0272048 16.624634 0 4
-0.86386842 4.7441444 -1.6293954 15
-0.94399416 5.1841741 -1.6442688 13
-1.0335801 5.6761575 -1.6543756 10
-1.0713757 5.8837214 -1.5656004 19
-1.2530068 6.8811927 -1.6572601 13
-1.317737 7.2366743 -1.5634961 22
-1.2576891 6.9069066 -1.3227267 7
-1.5876878 8.886261 -1.4830786 19
-1.9510614 10.920056 -1.5590172 32
-2.1350861 11.95004 -1.4195938 24
-2.1693137 12.141612 -0.86246902 6
-2.605876 14.585044 -0.34398401 12
-0.85279799 4.7730956 -1.6383586 15
-0.92612696 5.1835165 -1.6430771 13
-1.0157671 5.6852307 -1.6560293 13
-1.0627494 5.9481902 -1.5818086 12
-1.0965768 6.1375213 -1.3252292 2
-1.2330509 6.9013648 -1.3208752 5
-1.5776968 8.9842358 -1.4986422 3
-1.9052895 10.849721 -1.5481617 35
-2.0710995 11.793931 -1.4003129 49
-2.1040957 11.981828 -1.1349537 15
-2.1401775 12.187296 -0.86525929 10
-2.2066548 12.565853 -0.59496355 7
-2.5819523 14.702995 -0.34658363 12
-0.84059709 4.7868023 -1.6422001 15
-0.90743941 5.1674376 -1.6371197 12
-1.0008878 5.6995811 -1.659337 13
-1.0129685 5.7683759 -1.5331843 27
-1.2370424 7.0443707 -1.347537 1
-1.5576422 9.0177774 -1.5035057 3
-1.7927319 10.3788 -1.4802452 13
-2.0777183 12.028694 -1.4274923 27
-2.0577497 11.913089 -1.1278939 13
-2.0511243 11.874732 -0.84265822 8
-2.2266459 12.890893 -0.61005664 8
-2.816211 16.304108 -0.3841387 10
-0.82658243 4.7853971 -1.6409197 15
-0.89430642 5.1774769 -1.6395026 12
-0.98693192 5.7137208 -1.6626445 12
-1.0162872 5.8836694 -1.5630679 19
-1.2453465 7.2097807 -1.5551796 70
-1.2193744 7.0594187 -1.3497589 3
-1.5301418 9.0084715 -1.5012361 9
-1.7305781 10.188509 -1.4524107 6
-1.9962205 11.752438 -1.3940408 35
-2.0611577 12.134745 -1.1483302 10
-2.0583837 12.118414 -0.85953927 8
-2.1130254 12.440109 -0.58844191 7
-3.9917784 23.500975 -0.55343825 13
-0.80845731 4.7596664 -1.6313162 16
-0.88687921 5.2213635 -1.6526092 13
-0.97676826 5.7505713 -1.6725676 10
-0.9823581 5.7834802 -1.5357168 27
-1.2288129 7.2344451 -1.5597537 72
-1.2085437 7.1151128 -1.3597571 1
-1.7092929 10.236279 -1.4585342 1
-2.0389681 12.210572 -1.4477024 17
-2.0633373 12.356512 -1.1687665 24
-2.4129171 14.450006 -0.68319261 13
-2.646399 15.848237 -0.37304392 6
-0.80265081 4.8067584 -1.6466817 13
-0.88078362 5.2746644 -1.6686944 13
-0.95943755 5.7456918 -1.6703625 10
-0.98436606 5.894979 -1.5645875 23
-1.100386 6.5897765 -1.58302 12
-1.1444842 6.8538632 -1.4770049 9
-1.1977315 7.1727405 -1.3701257 1
-1.5744094 9.5933352 -1.5972114 33
-1.6768539 10.21756 -1.455194 6
-2.0026116 12.202497 -1.4460763 57
-2.1147416 12.885737 -0.91311222 9
-2.330497 14.200398 -0.67108095 15
-3.8753543 23.613665 -0.55557364 7
-0.77879262 4.7454104 -1.6249138 18
-0.86574227 5.2752199 -1.6680987 12
-0.94338977 5.7483487 -1.6703625 10
-0.9766748 5.9511642 -1.5787694 21
-1.1975759 7.2971792 -1.5718125 63
-1.1716503 7.1392069 -1.3630898 3
-1.5867338 9.8512602 -1.6393628 58
-1.9559697 12.143666 -1.4384104 55
-2.0608497 12.794815 -1.2090815 25
-1.972116 12.243911 -0.86721247 10
-3.7982724 23.581629 -0.55455232 21
-0.76952875 4.7776303 -1.6351576 13
-0.84613824 5.2532616 -1.6603539 13
-0.92602247 5.7492237 -1.6698111 10
-0.96885681 6.0151615 -1.5949776 12
-1.0605559 6.5844769 -1.5802532 12
-1.1740509 7.2891121 -1.5693176 36
-1.1379591 7.0650358 -1.3482777 7
-1.5584234 9.8617725 -1.6403354 27
-1.6369036 10.358399 -1.4738432 14
-1.9621011 12.416264 -1.4700032 46
-1.9824721 12.545171 -1.1849296 16
-1.9385839 12.267445 -0.86846811 8
-2.2228 14.065977 -0.66409338 12
-2.2595708 14.298664 -0.33609232 8
-0.83591282 5.2896934 -1.6710774 13
-0.90806091 5.7462502 -1.6681575 10
-0.94194621 5.9606771 -1.5797825 19
-0.91009152 5.7590995 -1.3815112 7
-0.97157824 6.1481905 -1.1727535 1
-1.4643066 9.4370403 -1.5690025 100
-1.6759969 10.801324 -1.5361928 21
-1.7772621 11.453948 -1.3554788 7
-1.9373578 12.48572 -1.1787988 13
-1.9850829 12.793294 -0.90529954 8
-2.0631268 13.296266 -0.62747878 14
-4.2265038 27.238617 -0.6399681 8
-0.73735225 4.7520256 -1.6249138 9
-0.82465178 5.3146462 -1.6782265 12
-0.8884744 5.725965 -1.6615421 12
-0.92470491 5.9594603 -1.5787694 21
-0.87490898 5.6385398 -1.3519996 3
-0.94247675 6.0739946 -1.3065172 5
-0.94687265 6.102325 -1.1634959 3
-1.5102047 9.927166 -1.6497386 24
-1.6323215 10.729888 -1.5253373 16
-1.8935426 12.446998 -1.4723263 11
-1.9254574 12.656785 -1.1944046 11
-1.9273077 12.668948 -0.89609164 2
-1.9587618 12.875709 -0.60735482 11
-3.8235931 25.133974 -0.59025055 15
-0.73407686 4.8253746 -1.6492428 6
-0.80916482 5.3189573 -1.6788222 12
-0.87234706 5.7342787 -1.663196 13
-0.92069352 6.0520792 -1.6025751 14
-0.84792936 5.573772 -1.3358605 3
-0.92709696 6.094171 -1.3102597 5
-0.92757839 6.0973358 -1.1620146 4
-1.4862748 9.9686909 -1.6558992 60
-1.6530504 11.087282 -1.5754397 16
-1.9529672 13.098874 -0.92608696 9
-2.0858276 13.98999 -0.65962142 9
-4.1028256 27.518332 -0.64595646 17
-0.71947783 4.8256564 -1.6486024 6
-0.79056513 5.3024511 -1.6728647 11
-0.8584488 5.7577581 -1.6692599 11
-0.89702743 6.016511 -1.592445 17
-0.82966697 5.5647135 -1.3330938 1
-1.08628 7.2858596 -1.3879002 5
-1.4056308 9.6235018 -1.59786 22
-1.5502996 10.613961 -1.5075232 55
-1.8229737 12.480795 -1.1767551 8
-1.8258535 12.500511 -0.88339597 6
-2.1104276 14.448818 -0.6809566 12
-4.0228848 27.542253 -0.64623499 8
-0.77979434 5.338779 -1.6835883 10
-0.8444162 5.7812057 -1.6753238 11
-0.87777221 6.0095739 -1.5899125 17
-1.0684779 7.3152199 -1.5713967 22
-1.0711889 7.3337808 -1.3964171 1
-1.2511736 8.7365437 -1.450006 5
-0.89313251 6.2364573 -0.88541937 3
-1.7338803 12.107128 -1.4302797 11
-1.8104178 12.641565 -1.191432 11
-1.8509024 12.924256 -0.91297269 6
-2.000967 13.972109 -0.65822393 9
-2.7667937 19.31963 -0.45312119 5
-0.76569551 5.3466058 -1.6853755 8
-0.82445401 5.7568974 -1.6676061 13
-0.85440505 5.9660358 -1.5777565 17
-0.88616341 6.1877942 -1.4811128 30
-1.072175 7.4866538 -1.6075734 16
-1.2214122 8.7128553 -1.4454666 5
-0.87215114 6.221427 -0.88291425 5
-1.6927127 12.074842 -1.4258661 11
-1.8016551 12.851975 -1.2107536 31
-1.7325026 12.358682 -0.87265348 6
-1.9461914 13.883016 -0.65375185 9
-3.9391434 28.099594 -0.65876883 8
-0.67155248 4.7904711 -1.6345173 6
-0.74797398 5.3356185 -1.6812052 10
-0.80283308 5.7269516 -1.6582345 16
-0.83132869 5.930223 -1.5676264 19
-0.89562905 6.388905 -1.528608 23
-1.1695391 8.526783 -1.4140152 5
-1.4549266 10.607464 -1.5047396 14
-1.7824531 12.995368 -1.2237585 11
-1.862016 13.575438 -0.95817494 9
-1.9267057 14.047073 -0.66120517 12
-3.243325 23.646177 -0.55413455 7
-0.73317587 5.3453803 -1.6835883 10
-0.79106069 5.7674026 -1.6692599 10
-0.83739054 6.1051807 -1.6132118 13
-0.81028897 5.9075904 -1.4128673 8
-1.1197153 8.3363733 -1.3819153 5
-1.4218737 10.585967 -1.5011212 11
-1.7546413 13.06345 -1.2297035 11
-1.9401327 14.444448 -0.67965227 3
-3.1818087 23.688829 -0.55492371 7
-0.77444118 5.7657785 -1.6681575 10
-0.82291502 6.1266704 -1.6182767 15
-0.82513714 6.1432142 -1.4686626 9
-1.0031562 7.4685802 -1.6017518 21
-1.1347301 8.4481592 -1.6060095 20
-1.3845303 10.544976 -1.4947193 27
-1.6030518 12.209297 -1.4400364 11
-1.7161351 13.070573 -1.2298894 11
-1.6905595 12.875781 -0.90808976 2
-1.6559168 12.611933 -0.59319341 5
-3.0599754 23.305641 -0.54573226 13
-0.75883299 5.7794876 -1.6714649 10
-0.791637 6.0293322 -1.5919386 21
-0.85504311 6.5122514 -1.5562752 11
-0.8686834 6.6161394 -1.4183737 4
-1.0899593 8.3014402 -1.5774959 48
-1.1976587 9.3233709 -1.54436 19
-1.642092 12.783135 -1.5071715 12
-1.8317709 14.259723 -1.0053303 2
-1.6204327 12.614526 -0.59310025 7
-2.9907987 23.282364 -0.54498953 20
-0.60425502 4.7039227 -1.6025056 18
-0.7270121 5.6595459 -1.6361835 19
-0.77578104 6.0391951 -1.5939646 14
-0.76940811 5.989584 -1.430851 6
-0.84895593 6.6088371 -1.4162946 1
-1.0249512 7.9789019 -1.5156553 20
-1.1758875 9.3738804 -1.5521419 15
-1.3641995 10.875057 -1.5403681 22
-1.5930325 12.699256 -1.4967179 33
-1.955251 15.586771 -0.73257107 14
-2.0621195 16.438702 -0.38464931 10
-0.64161336 5.1147814 -1.6085237 8
-0.68389553 5.4518442 -1.5755432 38
-0.75304359 6.0030751 -1.5838345 14
-0.75260323 5.9995646 -1.4326954 6
-0.94476128 7.5314002 -1.6133949 10
-0.99809402 7.9565558 -1.5108413 14
-1.2320869 10.049021 -1.6633565 27
-1.1933101 9.7327528 -1.3780922 21
-1.9518681 15.919624 -1.1215446 15
-1.9678823 16.050238 -0.75409263 10
-2.1103766 17.212437 -0.40261447 4
-0.6268639 5.1127629 -1.6073322 8
-0.69206583 5.644556 -1.6306707 13
-0.727566 5.9340987 -1.565094 14
-0.76616228 6.2488937 -1.4917185 12
-0.81016594 6.6077919 -1.415047 4
-0.96821874 7.8968859 -1.4989915 8
-1.1066204 9.2392149 -1.5287966 10
-1.1722521 9.7871761 -1.3853291 3
-1.4186136 11.844058 -1.3949699 2
-1.627665 13.589437 -1.2768927 9
-1.9126272 15.968596 -1.1246139 9
-2.3236339 19.400106 -0.91117191 16
-2.0111814 16.79143 -0.39263383 11
-0.61372006 5.1239715 -1.6103109 12
-0.67721605 5.6541023 -1.6328758 14
-0.71260369 5.9495549 -1.5686394 14
-0.74986738 6.2606707 -1.4940242 10
-0.8197127 6.843812 -1.2986569 3
-1.0500959 8.9796047 -1.4853483 6
-1.4978808 12.808714 -1.2031364 2
-1.876828 16.049175 -1.1299154 12
-3.0230558 25.850826 -0.60426986 7
-0.55085391 4.710475 -1.6025056 13
-0.59807676 5.1142879 -1.6067364 11
-0.66834491 5.7151666 -1.6499653 10
-0.70429981 6.022625 -1.5873801 12
-0.7348659 6.2840028 -1.4990965 12
-0.79619747 6.8084626 -1.4570453 4
-0.79831314 6.8265538 -1.2949538 4
-1.4587616 12.823249 -1.2040654 5
-2.1653428 19.034452 -1.3396033 12
-1.8408422 16.181931 -0.75949627 15
-2.9427373 25.868143 -0.60445559 7
-0.58394992 5.133214 -1.6120982 11
-0.65125722 5.7248788 -1.6521704 11
-0.68690771 6.0382643 -1.5909256 14
-0.71996105 6.3288202 -1.5092411 13
-0.77480543 6.8109298 -1.4570453 5
-0.78708321 6.9188576 -1.3119879 1
-2.1047046 18.973007 -1.33486 12
-2.16152 19.485172 -0.91424644 16
-2.5653887 23.125875 -0.54020804 6
-0.57319242 5.1670833 -1.6222259 11
-0.63717645 5.7438722 -1.6571318 12
-0.67217737 6.0593901 -1.5959907 12
-0.70807934 6.3830309 -1.5216913 28
-0.75341129 6.7916789 -1.4524713 6
-1.0696596 9.9108047 -1.6377416 73
-1.5989898 14.815252 -1.3902208 13
-1.7257646 15.989869 -1.1246139 3
-2.066818 19.149858 -0.89822173 5
-2.7608695 25.580511 -0.5973531 7
-0.56256932 5.21242 -1.6359282 11
-0.61765403 5.7228007 -1.6505166 11
-0.65564734 6.0748229 -1.5995362 10
-0.68934435 6.3870387 -1.5221524 21
-0.72065938 6.6771846 -1.4275218 5
-1.0572307 10.092731 -1.6672475 16
-1.543313 14.733059 -1.3820463 13
-1.9866856 18.965664 -1.3334647 12
-1.6829971 16.066538 -0.75334728 10
-2.447818 23.367811 -0.54550016 6
-0.55235833 5.273025 -1.6543964 10
-0.60167629 5.7438331 -1.6560293 12
-0.63192445 6.0325942 -1.5878866 10
-0.66299146 6.3291717 -1.5078578 13
-0.67746478 6.4673395 -1.382197 7
-0.74061954 7.0702386 -1.3393903 1
-0.99452144 9.7401018 -1.60856 54
-1.2359052 12.104155 -1.4228462 2
-1.5037277 14.727144 -1.3811175 16
-1.9311528 18.913242 -1.3294189 12
-1.6380908 16.043064 -0.75204295 10
-2.3777003 23.286621 -0.54345763 6
-0.53932828 5.2820501 -1.6567794 8
-0.58878601 5.766427 -1.6620933 11
-0.61337852 6.0072808 -1.5807955 10
-0.64424598 6.3095884 -1.5027853 15
-0.81414372 7.9735255 -1.5101005 6
-0.91403472 9.2225704 -1.5226359 6
-1.0342772 10.435811 -1.4738432 1
-1.3238009 13.357093 -1.5696607 12
-1.4765178 14.898 -1.3967233 54
-1.875809 18.926828 -1.3299769 8
-2.2184331 22.383892 -1.0489657 14
-2.4598405 24.819683 -0.579063 7
-0.52289903 5.2760282 -1.6543964 10
-0.57110345 5.7624087 -1.6604395 12
-0.59535927 6.0071487 -1.580289 10
-0.61784285 6.2340074 -1.4843407 15
-0.63573784 6.4145665 -1.3701382 8
-0.79106134 7.9817743 -1.5112115 8
-0.89527285 9.2977715 -1.5346329 39
-0.99791443 10.363746 -1.4632661 6
-1.0802951 11.219302 -1.3180782 10
-1.4669694 15.235071 -1.427935 16
-2.1170454 21.986376 -1.5445478 15
-2.1645269 22.47949 -1.0531583 21
-2.2632651 23.504925 -0.54823899 6
-0.55500782 5.7639813 -1.6604395 12
-0.57876545 6.0107141 -1.5807955 10
-0.60154915 6.2473316 -1.4871074 12
-0.61069548 6.34232 -1.3543369 12
-0.87279636 9.3375702 -1.5407935 3
-0.96768099 10.352689 -1.4613178 6
-1.1497177 12.300199 -1.4446825 5
-1.4144143 15.132043 -1.4179026 16
-1.4464332 15.474596 -1.0868058 11
-2.1041646 22.511305 -1.0543693 21
-2.1994829 23.531061 -0.54870325 6
-0.462329 4.9462047 -1.5501404 9
-0.53712136 5.746367 -1.6549268 12
-0.56053859 5.9968953 -1.5767435 8
-0.58591318 6.2683635 -1.4917185 10
-0.5931651 6.3459482 -1.3547527 10
-0.74848145 8.0075932 -1.5152848 8
-0.8390426 9.2732906 -1.5297694 4
-0.93589073 10.343678 -1.4596477 6
-1.1092814 12.260032 -1.4395719 13
-1.3673599 15.112373 -1.4156733 13
-1.3938637 15.4053 -1.0816438 8
-2.0505092 22.662697 -1.0611706 22
-2.0512836 22.671255 -0.52850986 6
-0.46227568 5.1091766 -1.6007789 15
-0.51504624 5.692409 -1.6389397 14
-0.54413891 6.0139475 -1.5807955 10
-0.56731313 6.2700744 -1.4917185 12
-0.57433486 6.3476801 -1.3547527 10
-1.0515829 12.043795 -1.4137864 8
-1.3413575 15.362586 -1.4387105 14
-1.9125944 21.90497 -1.5375723 15
-1.9744408 22.613298 -1.0585619 29
-1.9765759 22.637751 -0.52758139 26
-0.45120555 5.1676636 -1.6186515 12
-0.49348271 5.6518641 -1.6268119 12
-0.52271968 5.9867158 -1.573198 10
-0.54947561 6.2931519 -1.4967909 15
-0.55694395 6.3786869 -1.36099 8
-0.79289758 9.0810671 -1.7174709 14
-0.85910779 10.166979 -1.6763262 14
-1.0018979 11.856806 -1.6723042 50
-1.246972 14.757097 -1.3816748 9
-1.8710647 22.142826 -1.5538952 21
-1.9365103 22.917334 -1.0725368 22
-1.8983612 22.465864 -0.5234499 19
-0.44320154 5.2450004 -1.6424814 11
-0.50322825 5.9553771 -1.5645875 12
-0.52894819 6.2597561 -1.4884907 10
-0.54340982 6.4309001 -1.3718015 7
-0.76703614 9.0773716 -1.7163601 12
-0.83151817 10.179174 -1.6779474 21
-0.87380981 10.696896 -1.5083581 3
-1.0696944 13.09485 -1.5364416 12
-0.99077582 12.128756 -1.1353253 5
-1.8001304 22.03661 -1.5460825 20
-1.8417675 22.546318 -1.0549284 7
-1.8564582 22.726156 -0.52939183 13
-0.43026376 5.267149 -1.6490347 10
-0.49289781 6.0338945 -1.5848476 10
-0.51336807 6.2844849 -1.4940242 10
-0.52911371 6.4772382 -1.3813654 6
-0.73144478 8.9541092 -1.6926606 14
-0.8102901 10.29571 -1.6967535 16
-1.0256894 13.032616 -1.5287756 3
-1.3164762 16.727411 -1.565415 12
-1.7229917 21.892679 -1.535619 20
-1.7783048 22.595499 -1.056978 29
-1.8227419 23.160124 -0.5393725 6
-0.41163644 5.2303357 -1.6371197 11
-0.47408006 6.023757 -1.5818086 10
-0.49853474 6.3344831 -1.5055521 10
-0.50881666 6.4651275 -1.3784546 6
-0.7131986 9.0620451 -1.7126569 12
-0.76824087 10.12279 -1.6678959 37
-1.1534178 15.198107 -1.4219898 3
-1.6693914 21.996876 -1.5425947 20
-1.7257754 22.739824 -1.0634998 29
-1.6958646 22.345701 -0.52029318 19
-0.4591583 6.050138 -1.5883931 10
-0.4780435 6.2989802 -1.4967909 10
-0.4925352 6.4899316 -1.3834445 5
-0.69011807 9.093399 -1.7182117 10
-0.74459773 10.237349 -1.6863778 24
-0.85398465 11.741292 -1.65449 30
-0.88603854 12.181995 -0.85409826 6
-1.6617233 22.846754 -1.0682513 22
-1.665982 22.905306 -0.53319842 13
-0.43930802 6.0399718 -1.5853541 14
-0.46178293 6.3489761 -1.5083189 10
-0.83680701 11.966885 -1.685943 40
-0.98536289 14.091331 -1.6518954 23
-1.1632314 16.634966 -1.5557543 7
-1.5130916 21.638195 -1.5167848 15
-1.5941578 22.797495 -1.0657357 7
-1.609129 23.011593 -0.53556591 19
-0.3525272 5.0413685 -1.576949 20
-0.39575449 5.6595469 -1.6268119 12
-0.42001119 6.0064335 -1.5762371 14
-0.44717491 6.3948922 -1.5189246 10
-0.5025984 7.1874843 -1.5314776 21
-0.62965119 9.380847 -1.5446844 6
-0.94547218 14.086101 -1.6509662 23
-1.241861 18.501844 -1.7300196 19
-1.4477102 21.568684 -1.5116227 20
-1.5551002 23.168633 -1.0828784 7
-1.5413736 22.964128 -0.53435898 13
-0.33192524 4.9451823 -1.5465658 28
-0.38071927 5.6721396 -1.6301194 10
-0.40789929 6.0770802 -1.5944711 10
-0.43322325 6.4543691 -1.5327581 13
-0.49182495 7.3274455 -1.5610011 19
-0.58954674 8.7833519 -1.6585926 27
-0.60700083 9.4377136 -1.5537632 6
-0.89631766 13.936043 -1.6330789 23
-1.0775894 16.754475 -1.566344 4
-1.3855563 21.542776 -1.5095301 20
-1.5736195 24.466805 -1.1433437 8
-1.4857136 23.100035 -0.53742278 6
-0.32657057 5.0775542 -1.5876725 15
-0.36352181 5.6520758 -1.6240554 10
-0.39390871 6.1245346 -1.6066272 11
-0.41369978 6.4322486 -1.5272248 10
-0.47462687 7.379549 -1.5718125 16
-0.51821727 8.0572977 -1.5212097 8
-0.50046074 8.1590767 -1.3430065 1
-0.72485691 11.817435 -1.6639537 48
-0.78041601 12.723223 -1.4906782 9
-1.0228776 16.676105 -1.5587268 3
-1.3270099 21.634415 -1.5156686 20
-1.5542285 25.338789 -1.1838714 9
-1.4881716 24.261854 -0.56434733 7
-0.35004687 5.7068596 -1.6394911 10
-0.37218261 6.0677414 -1.5914321 8
-0.40200135 6.5538802 -1.555814 14
-0.45488638 7.4160714 -1.5792973 30
-0.49707749 8.103919 -1.5297266 28
-0.68646455 11.797905 -1.660892 26
-0.72359681 12.436078 -1.4567622 11
-1.2516239 21.511002 -1.5067397 5
-1.455822 25.020447 -1.1687783 26
-1.355038 23.288326 -0.54160076 13
-0.35300717 6.0669489 -1.5909256 10
-0.43056461 7.3998876 -1.575555 24
-0.47195992 8.1113272 -1.5308377 20
-0.52068436 9.4013615 -1.5469542 13
-0.67060333 12.108267 -1.7043139 17
-0.69238329 12.50152 -1.4641958 8
-1.0179508 18.379894 -1.7173862 19
-1.1901184 21.488516 -1.5049262 10
-1.4051737 25.371506 -1.1849893 18
-2.1365168 38.576473 -0.89700449 26
-0.33820462 6.1065478 -1.6010557 17
-0.36880913 6.6591363 -1.5802532 21
-0.44974309 8.1204624 -1.5323188 22
-0.50552863 9.582036 -1.5764601 16
-0.62564617 11.858803 -1.6689639 100
-0.65692699 12.451714 -1.458156 8
-0.97003281 18.386475 -1.7177578 23
-1.2960397 24.565767 -1.7201947 18
-1.3325282 25.257389 -1.1794925 9
-1.3292979 25.196161 -0.58579409 15
-0.25458351 4.8254995 -1.5078421 32
-0.32649586 6.1885614 -1.6223288 13
-0.35783163 6.7825146 -1.6093038 18
-0.41185498 7.8065 -1.6616304 22
-0.58141702 11.720263 -1.6492014 34
-0.90791881 18.30192 -1.7095834 23
-1.0754158 21.678341 -1.5177613 10
-1.2577195 25.353237 -1.1837782 9
-1.2638986 25.477797 -0.59224665 7
-0.25304291 5.1008644 -1.5936301 18
-0.31050164 6.2591233 -1.6405628 18
-0.34481251 6.9507661 -1.64896 13
-0.38616273 7.784308 -1.6566405 18
-0.38630843 7.7872443 -1.4689969 3
-0.46000823 9.8273468 -1.6163416 100
-0.5642454 12.054209 -1.6959636 14
-0.59769988 12.76891 -1.4948596 9
-0.70420045 15.044127 -1.4050835 10
-1.1279429 24.096712 -1.686851 17
-1.1843036 25.300772 -1.1811695 9
-1.1977056 25.587082 -0.59470707 7
-0.23728088 5.0691299 -1.5835023 15
-0.27408367 5.8553634 -1.6808368 7
-0.29257041 6.2503033 -1.6380304 20
-0.32549316 6.9536457 -1.6494211 13
-0.35866198 7.6622443 -1.6304437 48
-0.36410266 7.7784767 -1.4671453 1
-0.42154479 9.5781956 -1.5751631 10
-0.51630235 11.731243 -1.6503148 17
-0.55112451 12.522461 -1.465822 8
-0.80149138 18.21121 -1.7006657 18
-1.0581957 24.043957 -1.6829447 17
-1.4054587 31.934349 -1.4906697 15
-1.7108737 38.873882 -0.90341061 26
-0.20943944 4.7588105 -1.6095482 15
-0.22295725 5.065958 -1.5823108 14
-0.25840858 5.8714705 -1.6852469 7
-0.27817875 6.3206811 -1.6562645 15
-0.30539033 6.9389734 -1.6457322 13
-0.3453503 7.84693 -1.6695311 30
-0.47952247 11.734786 -1.6505932 17
-0.51842844 12.686886 -1.4848706 5
-0.73540777 17.996763 -1.6804152 31
-0.19487359 4.7689104 -1.6127493 15
-0.20407736 4.9941435 -1.5596722 12
-0.23964588 5.8645701 -1.6830418 6
-0.25752857 6.3021922 -1.6511995 20
-0.2831901 6.9301763 -1.6434265 13
-0.32588631 7.9750299 -1.6965597 19
-0.31825817 7.7883554 -1.4686265 3
-0.38266027 10.006439 -1.6451992 48
-0.38061064 9.9528418 -1.3998032 3
-0.49903011 13.049471 -1.5271494 6
-0.69042349 18.054344 -1.6856171 18
-0.83247304 21.768894 -1.5233419 10
-0.18231633 4.7675114 -1.6121092 16
-0.19260792 5.036633 -1.5727787 14
-0.22473341 5.8767042 -1.6863495 7
-0.2413993 6.3125114 -1.6537319 18
-0.26631138 6.9639535 -1.6512656 13
-0.29872835 7.8116469 -1.6616304 28
-0.34935331 9.9049692 -1.6283386 24
-0.45450002 12.88612 -1.5078684 3
-0.63713622 18.064276 -1.6863604 18
-0.89475083 25.368242 -1.7750232 12
-0.16783695 4.758563 -1.6089079 18
-0.17638534 5.0009294 -1.5614594 16
-0.20763578 5.886951 -1.6891057 7
-0.22444296 6.3634734 -1.666901 13
-0.24660936 6.9919419 -1.6577213 13
-0.27031007 7.6639118 -1.6300278 79
-0.30607146 8.6778288 -1.636004 21
-0.32512221 10.065777 -1.4153905 6
