# .PCD v0.7 - Point Cloud Data file format
VERSION 0.7
FIELDS x y z intensity
SIZE 4 4 4 4
TYPE F F F F
COUNT 1 1 1 1
WIDTH 1388
HEIGHT 1
VIEWPOINT 0 0 0 1 0 0 0
POINTS 1388
DATA ascii
5.4495654 -1.8945407 -1.6543756 17
6.0435863 -2.1010518 -1.6750051 11
6.5219388 -2.2673509 -1.6360487 13
7.4577842 -2.5926976 -1.6782633 14
8.3947954 -2.9184494 -1.6745157 8
9.7484856 -3.4215136 -1.6974019 17
10.975312 -3.8521037 -1.6347274 17
12.710083 -4.4609718 -1.5752358 15
12.938659 -4.5411968 -1.2793078 6
23.744516 -8.3338261 -1.7596768 24
4.6322803 -1.625833 -1.6588461 13
4.8855953 -1.7147413 -1.6156727 21
5.3278217 -1.8699533 -1.6190939 18
6.0665359 -2.1292264 -1.6831092 9
6.5317092 -2.2924926 -1.6401987 13
7.438983 -2.6109266 -1.6757684 14
8.4510069 -2.9661257 -1.6874763 8
9.7327108 -3.4484456 -1.6964293 21
10.978768 -3.8899424 -1.6369541 16
12.694919 -4.4980001 -1.5750035 34
12.889465 -4.5669308 -1.2757779 9
14.70045 -5.20859 -1.0905727 8
36.444019 -12.912663 -1.8030583 26
4.6042185 -1.6313437 -1.6505231 13
4.8336968 -1.7126514 -1.6001832 22
5.4037967 -1.9146463 -1.6439012 15
5.0662694 -1.7950553 -1.407065 1
6.5432224 -2.318362 -1.64481 16
7.4441113 -2.6375606 -1.6786791 14
8.4254971 -2.98528 -1.6841437 10
9.7416267 -3.482254 -1.6996716 19
10.934295 -3.9085865 -1.6319439 17
12.611228 -4.5080252 -1.5661761 12
12.874786 -4.6022372 -1.2755921 9
21.792994 -7.7901506 -1.6183501 5
31.089529 -11.113301 -1.5396756 17
4.5942926 -1.6422814 -1.6486024 12
4.9169879 -1.7576326 -1.629375 16
5.311533 -1.8986671 -1.6174401 29
6.0924315 -2.177808 -1.6937456 9
6.6246858 -2.3680685 -1.6669437 13
7.4809289 -2.6741421 -1.688659 14
9.718257 -3.506454 -1.6974019 17
10.786653 -3.8919427 -1.6116247 30
12.622087 -4.5541883 -1.569196 6
12.994068 -4.6884031 -1.2887828 9
24.138186 -8.7093229 -1.7944155 25
4.5893993 -1.6559057 -1.6486024 13
4.7680802 -1.7203759 -1.581715 11
4.8917499 -1.7649971 -1.4911982 81
6.0768433 -2.1925919 -1.6912131 9
6.5938325 -2.3791273 -1.6609491 13
7.4968834 -2.704958 -1.6940647 14
8.463625 -3.0537691 -1.6952527 19
9.6818485 -3.5258186 -1.6928625 17
10.847635 -3.9503608 -1.6224802 32
12.658917 -4.6099715 -1.5754682 12
12.980101 -4.7269363 -1.2887828 9
24.10474 -8.7781725 -1.7938575 19
4.6147323 -1.6805375 -1.6594864 13
4.7808948 -1.7410485 -1.5876725 18
4.7004251 -1.7117441 -1.4344169 10
6.0466776 -2.2020059 -1.6846286 9
6.6178312 -2.4100018 -1.6687881 13
7.5053687 -2.7332144 -1.6978071 13
9.6108322 -3.5303855 -1.6821626 22
11.067086 -4.0653172 -1.6569951 21
11.064779 -4.0644698 -1.3784766 2
12.957503 -4.7597318 -1.2878538 9
14.573931 -5.3535004 -1.0856898 8
4.6260285 -1.6992977 -1.6652485 14
4.7813902 -1.7563672 -1.5894598 21
4.7100639 -1.7301667 -1.438827 7
6.0368719 -2.2175484 -1.6836156 9
6.6238627 -2.4331701 -1.6720159 13
7.4977069 -2.7541625 -1.6978071 14
8.4532766 -3.105176 -1.696734 23
9.4343815 -3.4955006 -1.6529808 37
11.100263 -4.1127205 -1.6636753 16
11.56377 -4.2844534 -1.4421271 5
14.439873 -5.3500681 -1.4366667 10
24.356544 -9.0242605 -1.8163191 26
4.6141586 -1.7095762 -1.6626877 13
4.5920677 -1.7013915 -1.5280975 11
4.6313004 -1.7159274 -1.4162247 9
6.6060925 -2.4476008 -1.6692492 13
7.5193367 -2.785964 -1.7044601 14
8.4261417 -3.1219411 -1.6930308 23
9.5367317 -3.5656381 -1.6727597 17
10.850558 -4.0568576 -1.6280471 39
11.558452 -4.321528 -1.4430563 11
14.29337 -5.3440719 -1.4236619 3
24.312841 -9.0901995 -1.8150634 26
4.605516 -1.7219319 -1.6614071 15
4.5798464 -1.7123344 -1.5257145 10
4.6189861 -1.7269681 -1.4140197 7
5.7956533 -2.1669061 -1.6197963 29
6.6170306 -2.4740064 -1.6738604 13
7.5495195 -2.8226497 -1.7131926 16
8.4683895 -3.1662011 -1.7033994 19
9.5371895 -3.5980978 -1.6747051 19
10.901477 -4.112803 -1.6375109 42
11.554872 -4.3593092 -1.4442179 8
16.897062 -6.3747592 -1.6848741 18
24.659105 -9.3031473 -1.8429661 19
4.5950685 -1.7335826 -1.6594864 13
4.5926089 -1.7326547 -1.531672 18
4.6839933 -1.7671314 -1.4355195 19
5.8435063 -2.204581 -1.6349913 24
6.58599 -2.4846981 -1.6678659 13
7.5667357 -2.8547044 -1.719014 14
8.4902191 -3.2031071 -1.7096945 17
9.557826 -3.638315 -1.6802171 16
10.896628 -4.1479483 -1.6386242 29
11.48619 -4.3723726 -1.4372488 8
16.745937 -6.3745666 -1.6716833 13
24.590372 -9.3606558 -1.8398968 26
4.5969877 -1.7499052 -1.6620474 15
4.9835634 -1.8970604 -1.6639285 13
5.8315144 -2.2198443 -1.6334718 15
6.5440316 -2.4910736 -1.6591047 13
7.589313 -2.8889742 -1.7260829 14
8.4733305 -3.2254872 -1.7082134 21
9.5838366 -3.6808093 -1.6867019 17
10.771493 -4.1369457 -1.6216451 29
11.526944 -4.4270873 -1.4439855 8
16.375607 -6.2892857 -1.6365702 21
20.448254 -7.8534441 -1.5317127 5
4.5953131 -1.7648957 -1.6633278 13
5.0135584 -1.9255288 -1.6758435 11
4.615994 -1.7728385 -1.4178786 5
5.82129 -2.2357497 -1.6324588 13
6.5438786 -2.5132701 -1.6609491 16
7.5953183 -2.9170907 -1.7294097 14
8.4508791 -3.245681 -1.7056212 23
9.6029654 -3.718962 -1.6918899 14
10.794989 -4.1805992 -1.6269337 32
11.529355 -4.4649992 -1.4458441 11
16.192709 -6.2709866 -1.6200354 17
25.959322 -10.053324 -1.9466242 21
4.586833 -1.7763529 -1.6620474 15
4.8853168 -1.8919474 -1.6347368 22
5.202642 -2.0148387 -1.5997993 20
5.876368 -2.275754 -1.6496799 22
6.5658712 -2.5427794 -1.6683271 13
7.5834937 -2.9368763 -1.7285779 14
8.4436159 -3.2699778 -1.7059915 23
9.5962191 -3.7471991 -1.6925384 16
16.04158 -6.264029 -1.6066591 16
23.602489 -9.216466 -1.7718145 12
4.5659699 -1.7829521 -1.6562853 15
5.3116088 -2.0741143 -1.6350808 19
5.7582493 -2.2485216 -1.6182767 15
6.5768728 -2.5681834 -1.6729382 16
7.577085 -2.9587533 -1.7289937 14
8.3685427 -3.2678075 -1.6926606 31
9.4767227 -3.73298 -1.6734082 34
13.209374 -5.2033105 -1.6602582 16
15.76168 -6.2086902 -1.5804634 16
25.836016 -10.177077 -1.9417411 14
4.4584107 -1.7562145 -1.6191516 13
5.0075665 -1.9725327 -1.679418 17
5.3519387 -2.1081846 -1.6494141 19
5.683146 -2.2386506 -1.5990295 12
6.6108704 -2.6040909 -1.6835439 17
7.5318699 -2.9668822 -1.7206773 19
8.4539003 -3.3300798 -1.7119163 17
10.280262 -4.0827017 -1.5545636 13
13.089559 -5.1983852 -1.647017 20
18.059561 -7.1721716 -1.8128792 21
23.294983 -9.2513666 -1.7527012 6
4.4922299 -1.7840437 -1.6332369 13
5.0073614 -1.9886228 -1.6812052 12
5.3210163 -2.1131876 -1.6416962 18
5.7523961 -2.2845058 -1.6203027 22
6.6759205 -2.6512742 -1.7019887 14
8.2728634 -3.2854838 -1.6771078 55
9.0953522 -3.6452491 -1.6098568 13
10.070678 -4.0361414 -1.5247806 11
13.080539 -5.2424378 -1.6479462 13
18.271688 -7.3229551 -1.8364737 21
25.134403 -10.073403 -1.8934697 20
4.453187 -1.7847549 -1.6210724 12
4.9940004 -2.001503 -1.6788222 11
5.817028 -2.3313572 -1.6405628 22
6.7127185 -2.6903334 -1.7135166 14
7.5431862 -3.0231695 -1.7273306 24
8.3737879 -3.3560591 -1.6996963 25
9.17663 -3.7075989 -1.6260689 40
9.9271526 -4.0108294 -1.5047396 4
12.84483 -5.1896477 -1.6200701 35
18.32687 -7.4045353 -1.8440909 16
25.132072 -10.154016 -1.8954229 13
4.5254846 -1.8284143 -1.6492428 13
4.9034233 -1.9811115 -1.6502262 16
4.8538365 -1.9610771 -1.501121 9
5.8445792 -2.3613632 -1.6501864 27
6.7250285 -2.7170877 -1.7185889 14
7.4821129 -3.0229695 -1.7152715 45
8.3771391 -3.3845837 -1.7022884 23
9.2752466 -3.779494 -1.6455234 86
11.591324 -4.7232533 -1.4637312 5
18.231054 -7.4288225 -1.8366596 21
21.949785 -8.9441376 -1.6574137 5
4.479682 -1.8253888 -1.6345173 13
4.8798428 -1.9884471 -1.6442688 17
4.8711414 -1.9849014 -1.5082877 11
5.9952221 -2.4429438 -1.6947587 21
6.7205415 -2.7384982 -1.7195112 14
7.5655046 -3.0828054 -1.7364786 19
8.458066 -3.4465077 -1.7208037 19
8.7869921 -3.6073918 -1.5605721 18
10.881132 -4.4671154 -1.6530982 48
24.809196 -10.185111 -1.875333 6
4.4731345 -1.8363906 -1.633877 13
5.0194459 -2.060672 -1.6931202 10
4.8694854 -1.9991076 -1.5093902 15
6.042501 -2.4806747 -1.7099538 14
6.7295518 -2.7627349 -1.7236612 15
7.5610275 -3.1040871 -1.7373102 21
8.4581041 -3.4723709 -1.7226553 17
9.530468 -3.9476495 -1.694808 24
10.996959 -4.55509 -1.6728607 42
12.989919 -5.3806009 -1.6442294 13
17.73538 -7.3462358 -1.7909566 41
24.708874 -10.234752 -1.8701711 13
4.5216098 -1.8729123 -1.6537243 13
4.9335728 -2.0435529 -1.6663115 16
5.0994124 -2.112246 -1.5827098 19
6.0418277 -2.5026073 -1.7119797 14
6.7388186 -2.7913103 -1.7282724 15
7.4843655 -3.100126 -1.7219248 32
8.4580479 -3.5034385 -1.724877 17
9.4848042 -3.9598014 -1.6886474 34
12.921682 -5.3946605 -1.6374927 13
17.679882 -7.3811564 -1.7874267 35
24.514498 -10.234533 -1.8576149 6
4.4831405 -1.8716619 -1.6415598 15
4.9031811 -2.0470243 -1.657971 16
5.2638102 -2.197583 -1.6356323 13
6.0401726 -2.5217056 -1.7134993 14
6.7148347 -2.8033698 -1.7241223 15
7.3854151 -3.0833297 -1.7011336 65
8.3648014 -3.4922125 -1.7078429 25
9.4232101 -3.9688962 -1.6798929 30
12.915656 -5.4398551 -1.6388865 10
17.640091 -7.4297071 -1.7857547 20
4.4423146 -1.8710276 -1.6287552 13
4.977664 -2.0965075 -1.6853755 12
5.2799139 -2.2238102 -1.6427988 11
6.0447021 -2.5459261 -1.7170448 14
6.7382784 -2.8380487 -1.7324225 15
7.5091066 -3.1627083 -1.7319044 32
8.3447332 -3.5146601 -1.7059915 23
9.4520559 -4.0121598 -1.6870261 30
9.9832582 -4.2376418 -1.5242239 6
14.081656 -5.9773083 -1.7889531 15
17.694429 -7.5108395 -1.7933719 66
19.199036 -8.1495066 -1.4584683 4
4.4998612 -1.9100778 -1.6518036 13
4.9630027 -2.1066694 -1.6823967 15
5.268374 -2.2362919 -1.641145 9
5.8096013 -2.4660294 -1.6522124 67
6.744658 -2.8629372 -1.7361114 15
7.4300165 -3.1538548 -1.7156875 65
8.3855429 -3.5594516 -1.7163601 14
9.337389 -3.9942963 -1.6685445 78
17.913229 -7.6628213 -1.8177096 21
24.37289 -10.4261 -1.8537085 13
4.5450292 -1.9442474 -1.6703705 14
4.9430575 -2.1145136 -1.6776307 15
5.283319 -2.2600689 -1.6477602 12
5.7173066 -2.4457178 -1.6279004 20
6.7402153 -2.8832917 -1.7370337 15
7.444562 -3.1845934 -1.7210932 32
8.38099 -3.5851734 -1.7174709 17
9.3098879 -4.0133238 -1.6656263 86
14.015219 -6.041707 -1.7847718 15
17.622946 -7.5969329 -1.7903992 20
24.748583 -10.668666 -1.8845409 13
4.5448027 -1.959182 -1.6722912 14
4.9669385 -2.1411572 -1.6877584 12
5.2752218 -2.2740526 -1.6472089 12
5.7850776 -2.4938424 -1.6491734 31
6.7339244 -2.9028728 -1.7374947 15
7.4104891 -3.1945276 -1.7152715 29
8.3510933 -3.6000051 -1.7133976 23
9.2497702 -4.0180759 -1.6568718 86
10.096364 -4.3858337 -1.5470482 8
10.217678 -4.4385324 -1.3027463 10
10.15333 -4.4105797 -1.0327727 10
27.599005 -11.988935 -2.1041343 8
4.5410514 -1.9726207 -1.6729313 14
4.9767003 -2.1618655 -1.6931202 13
5.1930275 -2.2558374 -1.6235042 14
5.611279 -2.4375248 -1.6015621 17
6.7204366 -2.9193401 -1.7361114 15
7.4087162 -3.2183268 -1.7169349 29
8.4671946 -3.6781273 -1.7393188 17
9.5570555 -4.1872993 -1.7142625 26
14.106483 -6.1805711 -1.8010328 15
10.126656 -4.436862 -1.0314721 10
28.878777 -12.652859 -2.2047231 11
4.5452447 -1.9914396 -1.6767728 14
4.9628882 -2.1744246 -1.6907371 15
5.229938 -2.291429 -1.6372859 15
5.4901743 -2.4054482 -1.5691459 8
6.6827116 -2.9279428 -1.7287334 15
7.3215189 -3.207828 -1.6990544 71
8.5006027 -3.7244282 -1.7485765 14
9.5897226 -4.2355714 -1.7223685 21
10.603833 -4.6834817 -1.6291604 16
13.955434 -6.1638103 -1.7840748 15
10.138949 -4.4781528 -1.0340731 10
27.621983 -12.200027 -2.1115286 8
4.5531816 -2.0110409 -1.6818947 13
4.9406977 -2.1821983 -1.6853755 17
5.3374267 -2.3574247 -1.6731188 16
5.4688544 -2.4154737 -1.565094 14
6.6455121 -2.9351776 -1.7213557 14
7.3441806 -3.2437644 -1.7065393 22
8.4841223 -3.7472515 -1.7474656 14
9.4714766 -4.2149925 -1.7032382 34
11.252972 -5.0077929 -1.7310352 19
13.871017 -6.172874 -1.7754797 15
10.146417 -4.5153542 -1.0361167 10
29.601978 -13.17346 -2.2656903 13
4.5579348 -2.0283701 -1.6857361 13
4.9363284 -2.196763 -1.6859711 15
5.2061152 -2.3168232 -1.6339784 22
5.486835 -2.4417491 -1.5721849 17
6.6888514 -2.9766698 -1.734728 15
7.3529673 -3.2722144 -1.7106977 24
8.4269381 -3.7501526 -1.7378377 19
9.5320091 -4.2778573 -1.7165321 22
10.709566 -4.8063312 -1.649758 17
13.847931 -6.2147942 -1.775015 3
17.630032 -7.912158 -1.8028468 15
26.032852 -11.683249 -1.9953142 7
4.5619121 -2.0473342 -1.6895775 13
4.9868832 -2.2380564 -1.7056309 15
5.1356673 -2.3048291 -1.6141325 12
5.6009355 -2.5136361 -1.6071336 24
6.6972218 -3.0056369 -1.7393392 15
7.3712068 -3.3081138 -1.7173507 29
8.4975986 -3.8136258 -1.7548717 14
9.4182692 -4.2564702 -1.6980505 30
11.491051 -5.1932383 -1.7722304 28
14.69145 -6.6396189 -1.8853582 16
16.44426 -7.4317794 -1.6835736 4
25.882185 -11.697133 -1.9861064 14
4.5582628 -2.0600505 -1.6902176 13
4.9496913 -2.2369516 -1.6949073 17
5.1383753 -2.3222249 -1.6168888 15
5.5008907 -2.4860594 -1.580289 12
6.6928773 -3.0247631 -1.7402614 15
7.4570045 -3.3701007 -1.7393893 21
8.5054951 -3.8439531 -1.7585746 17
9.5230942 -4.3359098 -1.719126 66
11.361145 -5.1727829 -1.7544163 26
14.663814 -6.6765037 -1.8841966 16
16.396259 -7.4652944 -1.680787 9
28.745584 -13.088 -2.2086294 22
4.5507684 -2.0719864 -1.6895775 11
4.9208364 -2.2404802 -1.6871626 17
5.2893438 -2.4082632 -1.6665035 17
6.0574064 -2.7579658 -1.7423699 14
6.675549 -3.0394092 -1.7379559 15
7.4511256 -3.3925328 -1.7402211 19
8.281868 -3.7707736 -1.7145085 27
9.4556198 -4.341104 -1.7093989 100
11.29624 -5.1861386 -1.7469009 48
14.612076 -6.7084489 -1.8802477 20
16.361864 -7.5117822 -1.6796721 9
28.568336 -13.11581 -2.1981659 22
4.5700655 -2.0981309 -1.6991808 13
4.9380651 -2.2670808 -1.6955032 15
5.2869935 -2.4272749 -1.6681575 18
5.8500195 -2.6857617 -1.6851351 24
6.6429753 -3.0498102 -1.7319614 15
7.4333191 -3.4126594 -1.7385577 21
8.5200462 -3.9115791 -1.7663512 14
9.4713545 -4.3823996 -1.7145866 53
11.016577 -5.0973744 -1.705984 31
14.666022 -6.7859745 -1.8897719 40
16.310587 -7.5469155 -1.6766996 13
17.840769 -8.2549314 -1.3746212 4
70.353661 -32.552666 -3.6150606 61
4.5655398 -2.1124771 -1.6998212 11
4.9555745 -2.2929463 -1.7038436 16
5.3443255 -2.4728217 -1.6885545 21
5.5470262 -2.5666113 -1.6000426 19
6.6709871 -3.0866685 -1.7416449 15
7.4036303 -3.4256625 -1.7339836 24
9.512743 -4.4338436 -1.724314 24
10.081402 -4.6988926 -1.5631924 22
14.729839 -6.8655066 -1.9004579 45
16.332769 -7.6126246 -1.6811584 9
31.409189 -14.63967 -2.4232004 17
70.068726 -32.658691 -3.6050918 60
4.5699267 -2.1300206 -1.7036625 13
4.9872227 -2.3245203 -1.7169502 16
5.433239 -2.5324063 -1.7188746 13
5.4889808 -2.5583873 -1.5853541 12
6.6464663 -3.0978856 -1.7374947 15
7.4631882 -3.4785559 -1.7502007 17
8.4100857 -3.9199002 -1.7482061 10
9.5191956 -4.4712787 -1.7278807 24
10.277153 -4.8273005 -1.5957589 6
14.497239 -6.8095245 -1.8730464 32
15.488205 -7.2749929 -1.5964409 4
27.620302 -12.973582 -2.1338506 9
4.5670171 -2.1451819 -1.7049431 13
5.0079527 -2.3522944 -1.7264822 13
5.4257011 -2.548516 -1.7188746 13
5.4568481 -2.5631461 -1.578263 12
6.6125846 -3.1060092 -1.7310392 18
7.4829364 -3.5148237 -1.7572699 14
8.2347155 -3.8960493 -1.4966967 4
10.483837 -4.960165 -1.6299956 17
14.395569 -6.8109031 -1.8623604 16
15.453428 -7.3114023 -1.5949546 4
17.809196 -8.4259748 -1.3776903 4
4.5627213 -2.1587374 -1.7055832 13
5.0168967 -2.3736191 -1.7318438 13
5.3629532 -2.5373468 -1.7012339 13
6.0582976 -2.8663318 -1.754526 16
6.5792575 -3.1128109 -1.7245835 15
7.4447975 -3.5223196 -1.7506166 14
7.7513437 -3.6673543 -1.6156373 18
8.2380562 -3.9258218 -1.4992906 1
9.9693327 -4.7508564 -1.5520586 22
14.460775 -6.8912406 -1.8732785 28
15.494072 -7.3836555 -1.6012713 16
30.470558 -14.520657 -2.36028 15
15.320828 -7.3010964 -0.79145253 4
4.5515437 -2.1690249 -1.7036625 13
5.0068021 -2.385977 -1.7306525 13
5.3905568 -2.5688543 -1.7122594 15
6.065989 -2.8907297 -1.7590845 14
6.5582414 -3.1253111 -1.7213557 14
7.39608 -3.5245807 -1.7414684 26
7.5228391 -3.5849872 -1.5700899 8
9.4983988 -4.5610666 -1.731123 9
10.526508 -5.0547576 -1.6411294 16
14.590685 -7.0063472 -1.892792 33
15.382339 -7.3864946 -1.5919821 16
15.361147 -7.376318 -1.1915801 3
67.73925 -32.527927 -3.5042853 58
4.5365481 -2.1784194 -1.7004614 11
4.9979787 -2.3999953 -1.7300565 13
5.4539671 -2.6189578 -1.7348616 11
6.0695944 -2.914578 -1.7626301 14
6.562974 -3.1514952 -1.7250446 15
7.3273945 -3.5185649 -1.7277464 29
8.2085915 -3.9734919 -1.498318 4
10.300223 -4.9859776 -1.6082845 6
14.529265 -7.0331087 -1.8876812 24
15.38953 -7.449533 -1.5951405 16
15.37561 -7.4427948 -1.1945099 3
4.5416203 -2.1984394 -1.7049431 13
4.9938517 -2.4173489 -1.7312481 12
5.4612861 -2.6436176 -1.7398231 10
6.0569248 -2.9319456 -1.7616171 14
6.544282 -3.1678579 -1.722739 14
7.3744116 -3.5696948 -1.7414684 19
9.519063 -4.6407008 -1.7398775 13
14.570279 -7.1032524 -1.8955796 20
15.862697 -7.7333274 -1.6464168 13
15.308138 -7.4629707 -1.1908824 10
15.206746 -7.4135408 -0.78893697 4
4.5439792 -2.215265 -1.7081443 13
4.9767847 -2.426265 -1.7276736 13
5.4590669 -2.6613855 -1.7414769 10
6.0487137 -2.9488482 -1.7616171 16
6.51092 -3.1741815 -1.7162833 14
7.3397965 -3.5782723 -1.735647 29
8.2608919 -4.0273218 -1.7315425 68
9.4883518 -4.658567 -1.7366352 13
11.621577 -5.7059331 -1.8195492 8
14.537906 -7.1377845 -1.8939534 20
15.851765 -7.7828598 -1.6475314 4
26.865494 -13.190353 -2.0928338 7
15.264892 -7.4947181 -0.79303628 4
66.982048 -32.886681 -1.7324539 58
4.546279 -2.2321205 -1.7113453 13
4.9185767 -2.4149103 -1.7098011 13
5.2013812 -2.5537612 -1.6615421 42
6.010931 -2.951232 -1.7530066 21
6.4863086 -3.1846316 -1.7121332 14
7.3315315 -3.599617 -1.7360628 27
8.4613237 -4.1543193 -1.7759789 49
9.4240017 -4.6596785 -1.7272321 13
11.618025 -5.7445087 -1.8214977 10
14.580238 -7.2091694 -1.902084 28
36.561306 -18.077663 -2.8520632 28
4.5315361 -2.2406087 -1.7081443 13
4.870739 -2.4083271 -1.6955032 15
5.2045703 -2.5733891 -1.6648498 22
5.8257599 -2.8805351 -1.7013432 30
6.4930906 -3.2104955 -1.7162833 14
7.2688413 -3.5940638 -1.723588 17
8.3052206 -4.1064992 -1.7456141 23
9.5072918 -4.7360182 -1.7450655 26
11.618658 -5.787786 -1.8242812 16
14.523222 -7.234683 -1.8974379 45
33.284103 -16.580338 -2.6002424 23
4.429893 -2.206733 -1.6722912 19
4.9353461 -2.4585223 -1.7205247 11
5.3190908 -2.649683 -1.7039902 20
6.0353966 -3.0065079 -1.7651626 16
6.4905038 -3.2332177 -1.7181277 14
7.0550227 -3.5144303 -1.6753526 53
8.2384634 -4.1039562 -1.7341346 21
9.4649763 -4.750042 -1.7398775 86
11.68817 -5.8657627 -1.8379201 24
19.597351 -9.835021 -2.0456665 7
36.389198 -18.262087 -2.8470409 28
4.3894567 -2.2028692 -1.6594864 18
4.7949328 -2.4063592 -1.6740562 18
5.1531239 -2.5861192 -1.6532729 20
5.9659262 -2.9940276 -1.747435 21
6.4165263 -3.2201636 -1.7010664 21
6.9134297 -3.4695368 -1.6441659 16
8.2104416 -4.1204481 -1.7308019 17
9.696559 -4.9044585 -1.7852712 24
11.758051 -5.9471483 -1.8518374 24
13.346054 -6.7503505 -1.7489973 7
15.637446 -7.9093223 -1.6348982 13
4.3419356 -2.1961238 -1.6441208 15
4.7583861 -2.4067619 -1.6639285 30
5.0368929 -2.5476291 -1.6185427 24
6.0134659 -3.0415735 -1.7641497 14
6.3872757 -3.230644 -1.6959941 24
8.2027168 -4.1488829 -1.7319127 21
9.7215137 -4.9512219 -1.7924047 22
11.695512 -5.9565902 -1.8446004 16
19.267151 -9.8128681 -2.0172415 13
4.3931913 -2.2374771 -1.6658889 34
4.5304813 -2.3073997 -1.586481 11
5.3124261 -2.7056487 -1.7095029 16
5.9911556 -3.0513294 -1.7600975 16
7.3250394 -3.7306838 -1.74729 24
8.1420612 -4.1467977 -1.7215443 14
17.898317 -9.17875 -1.8766031 5
4.2192254 -2.1637349 -1.7258335 15
4.6044178 -2.3612723 -1.748479 16
4.6548319 -2.387126 -1.6323538 20
5.3955159 -2.7669692 -1.7387205 15
5.9963851 -3.0751114 -1.7641497 16
6.5111303 -3.339087 -1.7338059 15
7.3494072 -3.7689784 -1.7556064 45
8.1706734 -4.1901464 -1.7300614 25
8.5724087 -4.4283404 -1.5852146 6
12.078041 -6.2392821 -1.9105685 27
14.329121 -7.4021463 -1.8860551 16
22.694416 -11.723496 -1.7861842 6
4.214457 -2.1771069 -1.7265177 16
4.5973916 -2.3749235 -1.748479 17
4.4865847 -2.3176827 -1.5757575 33
5.3633699 -2.770613 -1.7310027 15
5.9837961 -3.0911133 -1.7631366 19
6.5063815 -3.3610709 -1.7351892 15
7.4129305 -3.8293765 -1.773487 19
8.2018595 -4.2369223 -1.7393188 29
8.054739 -4.1876726 -1.491509 3
14.514143 -7.545928 -1.9130021 16
39.963642 -20.777166 -3.1496441 25
68.743546 -35.739887 -1.7988367 61
4.2104106 -2.1889997 -1.7272017 13
4.5289564 -2.3546124 -1.7247903 27
4.3077183 -2.2395902 -1.514991 7
5.3202772 -2.7660213 -1.7194259 17
5.757668 -2.9934213 -1.6988107 80
6.4889269 -3.3736041 -1.7328836 15
7.4080868 -3.8514769 -1.7747344 17
8.3965111 -4.3653603 -1.7830148 20
8.0223131 -4.2028818 -1.4879422 4
11.147183 -5.8399987 -1.7686119 7
18.454319 -9.6682005 -1.9436711 18
41.840412 -21.920153 -3.302969 23
68.676971 -35.979797 -1.8000437 61
4.2035127 -2.2022164 -1.7272017 13
4.539999 -2.3785012 -1.7318329 26
4.6913228 -2.4577796 -1.6526092 17
5.2962341 -2.7746921 -1.7144644 17
5.9898872 -3.1380963 -1.7702276 16
6.4576097 -3.3831356 -1.7273502 15
7.1429491 -3.7421844 -1.7140242 97
8.42628 -4.4145198 -1.7922723 31
9.6880636 -5.1100979 -1.7995379 15
11.134336 -5.8729529 -1.7691686 5
18.4431 -9.7280579 -1.9453431 12
24.005079 -12.661798 -1.8977946 6
61.669289 -32.528282 -3.2514303 52
68.613373 -36.191032 -1.8010185 61
4.2089829 -2.2200837 -1.73199 12
4.597024 -2.4247613 -1.7561617 16
4.9900947 -2.6320918 -1.7604399 11
5.2918663 -2.791265 -1.715567 15
5.627058 -2.9680665 -1.5073966 2
7.1203589 -3.7557278 -1.7111135 24
8.6207905 -4.5471501 -1.8363385 15
11.070663 -5.8789425 -1.7616533 7
12.395056 -6.5822453 -1.6412095 10
15.821709 -8.401927 -1.6713119 4
41.981647 -22.293848 -3.3238959 23
61.417641 -32.615097 -3.2429521 52
4.2143855 -2.2379987 -1.7367783 12
4.5801945 -2.4322572 -1.7523204 17
4.86975 -2.5860221 -1.7205247 25
5.1601 -2.7402089 -1.6753238 18
5.7842994 -3.0716825 -1.7145123 19
5.5895286 -2.9682517 -1.4995576 2
7.3119946 -3.8829467 -1.7597648 52
7.294023 -3.8734031 -1.5560182 4
9.7681084 -5.2244506 -1.8199651 19
10.890753 -5.8248944 -1.735767 14
12.53312 -6.703311 -1.6621165 6
19.76696 -10.572313 -2.0913694 22
69.068489 -36.941124 -1.8185196 62
4.207727 -2.2504933 -1.7367783 13
4.5746284 -2.4467297 -1.7529606 17
4.7475753 -2.5392301 -1.6800137 17
5.0858312 -2.7201455 -1.6538243 15
5.9372401 -3.1755195 -1.7626301 19
6.4267249 -3.4373193 -1.726889 15
7.0882597 -3.7911396 -1.7086184 16
8.4298124 -4.5086665 -1.8011597 18
9.7377481 -5.2476225 -1.8173712 19
11.100797 -5.9821625 -1.7722304 9
12.461287 -6.7153234 -1.6553799 3
19.791496 -10.665536 -2.0975001 15
41.99221 -22.629387 -3.3356149 23
4.1989813 -2.2628095 -1.7360942 13
4.5752587 -2.4655836 -1.7561617 16
4.7412548 -2.555038 -1.6806093 11
5.1618814 -2.7817113 -1.681388 22
5.8948731 -3.1767168 -1.7530066 16
6.385057 -3.4408746 -1.7185889 14
7.0625362 -3.8059647 -1.7052919 13
7.1145091 -3.8339727 -1.5226909 6
9.7153025 -5.268394 -1.81575 21
11.052018 -5.9932656 -1.7669419 7
13.618878 -7.3852172 -1.8117187 3
19.453663 -10.549293 -2.0646164 29
42.485287 -23.038834 -3.3795617 22
4.2112164 -2.2836497 -1.7436186 12
4.5687881 -2.4775531 -1.7561617 16
4.768116 -2.5856442 -1.6925243 20
5.1174006 -2.7750535 -1.6692599 17
5.6858392 -3.0833054 -1.6932392 45
6.3726053 -3.4557233 -1.7176666 14
7.0989809 -3.8496208 -1.7165191 19
7.2202063 -3.9153585 -1.5475013 2
9.7108269 -5.3055134 -1.8180196 19
18.841988 -10.294326 -2.0031219 13
68.745705 -37.559238 -1.8187516 62
4.2023721 -2.2959673 -1.7429346 15
4.5659704 -2.4946194 -1.7580824 16
4.7063551 -2.5713184 -1.6734604 16
4.9989929 -2.7312014 -1.633427 14
5.6863127 -3.1067185 -1.6962782 16
6.3053589 -3.4449348 -1.7024498 14
7.0559497 -3.8550203 -1.7090342 14
8.5100813 -4.6494856 -1.827081 11
9.7288284 -5.3506804 -1.8241802 19
10.408873 -5.7246923 -1.6695206 5
14.253641 -7.8392458 -1.9023162 12
18.832361 -10.357459 -2.0051653 20
4.1827698 -2.3004482 -1.7374624 15
4.5921907 -2.5256221 -1.7708871 14
4.7878199 -2.6332147 -1.7050352 30
4.9795547 -2.7386653 -1.6295681 20
4.9520192 -2.7235215 -1.479495 8
6.3400497 -3.4869132 -1.7144388 14
7.1274357 -3.9199612 -1.7289937 60
9.7328415 -5.3883414 -1.8277467 22
12.12903 -6.7149305 -1.9484236 27
17.524603 -9.7020531 -1.8688 5
68.734291 -38.053001 -1.8240438 62
4.1631761 -2.3048372 -1.73199 13
4.5900931 -2.5411892 -1.7728078 16
4.9341173 -2.7316494 -1.7598442 13
4.968524 -2.7506976 -1.6284657 15
4.9308529 -2.7298419 -1.4754429 8
6.3388014 -3.5093172 -1.7167445 14
7.1883454 -3.9796457 -1.7464584 30
8.4977379 -4.7045579 -1.8300434 24
9.7788677 -5.4517927 -1.8394195 21
12.226685 -6.8164692 -1.9673511 20
13.474333 -7.5120425 -1.8040527 11
18.565416 -10.350361 -1.9830573 19
4.5312304 -2.526195 -1.7529606 19
4.961009 -2.7658002 -1.7723548 13
5.3146505 -2.9629581 -1.7447846 16
4.9362512 -2.7519975 -1.479495 2
6.2858663 -3.5044181 -1.7052165 18
7.1098676 -3.963805 -1.7302413 65
8.4185085 -4.6933823 -1.8159719 31
9.823842 -5.5128827 -1.850768 17
11.72054 -6.57726 -1.8888575 29
13.474091 -7.561307 -1.8068404 3
18.494762 -10.378777 -1.9785984 19
20.516785 -11.513482 -1.6451367 5
4.9216318 -2.7618909 -1.7610356 12
5.380125 -3.0191853 -1.7690406 11
4.9876013 -2.7989111 -1.4972225 2
6.1623468 -3.4581475 -1.6743215 27
7.0936518 -3.9807715 -1.7289937 86
8.3248119 -4.6716666 -1.7985677 33
9.8418045 -5.5614247 -1.8572527 17
11.949269 -6.7523146 -1.9289393 34
13.877038 -7.8416615 -1.8639865 4
18.40494 -10.400296 -1.9722817 19
4.9466591 -2.7952669 -1.7729505 12
5.3744907 -3.0370266 -1.7701433 11
5.7996087 -3.2772532 -1.7438895 11
6.1961107 -3.5013094 -1.6863105 45
7.1158733 -4.0210505 -1.7373102 86
7.802711 -4.4091697 -1.6885873 8
9.8561354 -5.6081691 -1.8630891 17
11.944674 -6.7965536 -1.9314444 21
18.384386 -10.460768 -1.9733965 13
44.827328 -25.506876 -3.6065493 25
4.4777226 -2.547837 -1.7407961 14
4.8304834 -2.7485588 -1.7342269 27
5.3337073 -3.0348947 -1.7596689 10
5.7898593 -3.2944462 -1.7438895 11
6.4106598 -3.6476836 -1.7476394 15
7.0375996 -4.0044141 -1.7210932 71
8.5292645 -4.8531756 -1.8489288 11
9.8651381 -5.6521049 -1.8679527 17
14.466274 -8.2882662 -1.9497058 12
18.574434 -10.641984 -1.9971769 6
4.359993 -2.4980021 -1.6979005 26
4.6599622 -2.6698656 -1.6758435 36
5.343029 -3.0612199 -1.765733 10
5.8002043 -3.3231528 -1.7499675 9
6.4437127 -3.6918426 -1.7596285 19
6.8304815 -3.9134369 -1.6732734 14
8.4278545 -4.8286314 -1.8300434 13
9.8578653 -5.6845608 -1.869574 19
11.937931 -6.8840356 -1.936733 19
14.467166 -8.3425245 -1.952958 17
18.649874 -10.754493 -2.0085096 13
4.5713072 -2.6360548 -1.7830516 11
4.6905289 -2.7048042 -1.6895458 58
5.3277979 -3.0722871 -1.7635279 11
5.7992826 -3.3441699 -1.7525001 9
6.4114614 -3.6971841 -1.753634 23
7.0025558 -4.0380402 -1.7181823 58
8.40242 -4.8452749 -1.8274513 13
9.8453665 -5.7140484 -1.8702223 26
11.199224 -6.4998002 -1.8198276 6
14.349318 -8.3280497 -1.9401814 12
18.931503 -10.987456 -2.0421364 21
65.195038 -37.837864 -1.7500941 59
4.5688443 -2.6516635 -1.7849723 9
5.3092213 -3.081363 -1.7602202 12
5.7648201 -3.3457835 -1.7449025 11
6.343884 -3.6818602 -1.7379559 30
7.1841373 -4.1695261 -1.7655863 58
8.4279528 -4.8914108 -1.8359683 18
9.8086252 -5.7339945 -1.8666558 33
10.792332 -6.3090563 -1.7569214 7
13.870342 -8.1084213 -1.8788538 12
18.528996 -10.831809 -2.0023787 6
65.153526 -38.087902 -1.7521831 59
4.5621266 -2.6669598 -1.7856125 8
4.7024155 -2.7489707 -1.6996734 16
5.3343687 -3.1184025 -1.7717971 10
5.7442589 -3.3580189 -1.7418634 11
6.3742881 -3.7263258 -1.7494838 34
6.8771372 -4.0202847 -1.6932329 27
10.734307 -6.317944 -1.7505195 7
13.782882 -8.112258 -1.8702587 12
19.756435 -11.628142 -2.1387441 16
51.374374 -30.237667 -4.1685076 42
65.626099 -38.625877 -1.7679664 59
4.8406763 -2.8491006 -1.7526951 11
5.3366904 -3.1410422 -1.775656 11
5.6859145 -3.3465867 -1.7271749 11
6.2977939 -3.7067235 -1.7315001 30
6.8668652 -4.0416646 -1.6936489 21
7.5865798 -4.4652705 -1.6585926 10
9.2948999 -5.5057507 -1.7748957 9
10.691062 -6.3327546 -1.7463442 7
17.91118 -10.609528 -1.9421848 6
49.229832 -29.160851 -4.001092 37
4.8129892 -2.8509309 -1.7455461 11
5.3245902 -3.1539731 -1.7745534 12
5.6931939 -3.3723123 -1.7322398 9
6.2187676 -3.6836312 -1.7125944 36
6.9649572 -4.1256299 -1.7206773 16
8.4906149 -5.0293398 -1.8592975 9
9.7666874 -5.8244252 -1.868277 43
10.687535 -6.3735781 -1.7488494 1
14.360369 -8.5638952 -1.955281 8
17.739376 -10.578988 -1.9269505 18
20.710047 -12.350566 -1.6861534 5
58.164219 -34.686596 -1.5722995 51
4.7733536 -2.8466194 -1.7342269 10
5.2953944 -3.1579416 -1.7679381 12
5.7080894 -3.4040546 -1.7398374 9
6.2963982 -3.7548962 -1.7370337 37
7.0215745 -4.1873598 -1.7377261 58
8.4435816 -5.0353827 -1.8522617 11
10.97367 -6.5858283 -1.7986733 1
14.298924 -8.5814743 -1.9501704 12
17.735376 -10.643854 -1.9297372 12
23.111507 -13.870331 -1.8848199 6
57.928261 -34.765541 -1.5685393 51
65.096611 -39.067616 0 63
4.7588377 -2.8560078 -1.7318438 8
5.270071 -3.1628237 -1.7624254 10
5.7002196 -3.4209769 -1.7403439 9
6.4193816 -3.8525803 -1.7739232 20
7.1876578 -4.3136601 -1.7818034 22
9.6022387 -5.7992988 -1.8429862 15
11.002706 -6.6451149 -1.8064669 1
13.672962 -8.2578239 -1.8679357 4
17.794224 -10.746872 -1.9393979 6
57.332893 -34.626366 -1.5550305 50
4.7557468 -2.8722467 -1.7336311 5
5.2645097 -3.1795154 -1.7635279 10
5.7651734 -3.4818926 -1.7631366 11
6.4402499 -3.8896072 -1.7826844 20
7.0834823 -4.278089 -1.7589329 22
8.4792595 -5.1210728 -1.8663334 15
9.4635754 -5.7539434 -1.8196409 21
12.177695 -7.4041543 -2.0029795 9
15.846471 -9.6348047 -2.168766 20
22.332567 -13.578412 -2.4384136 10
5.2796931 -3.2101035 -1.7717971 10
5.7184463 -3.4768693 -1.7519934 11
6.4769044 -3.9380193 -1.7960569 16
6.8317227 -4.1537523 -1.6994704 24
8.4606676 -5.1441665 -1.8655926 15
7.9441576 -4.8605599 -1.5300936 7
12.150214 -7.4339972 -2.0018661 9
15.822891 -9.6810913 -2.1692305 20
19.442554 -11.895749 -2.1264822 7
49.991959 -30.587122 -4.0981927 40
5.2821875 -3.2318583 -1.775656 10
5.7714295 -3.5311964 -1.7712406 9
6.4443016 -3.9428868 -1.7900623 20
6.8417902 -4.1860867 -1.7048761 29
7.971817 -4.8774834 -1.7607965 29
7.9053254 -4.8709998 -1.5255542 3
9.6009445 -5.9157844 -1.5849034 1
15.851591 -9.7672253 -2.177361 20
21.763332 -13.409845 -2.3849077 10
5.2769189 -3.2514627 -1.7773098 8
5.8047824 -3.5767148 -1.7849162 10
6.1999235 -3.8201878 -1.7255057 22
6.7103539 -4.1346979 -1.6753526 24
7.8343048 -4.8272395 -1.7337643 19
7.9159946 -4.9100375 -1.5304178 3
12.033887 -7.4642344 -1.9901756 22
15.785404 -9.7911797 -2.1722505 20
19.105534 -11.850551 -2.0975001 7
5.1120405 -3.170835 -1.7249388 21
5.810586 -3.6041203 -1.7899812 10
6.1852541 -3.8365149 -1.7245835 22
6.6797686 -4.1432467 -1.6707785 16
6.8144779 -4.2268023 -1.5108413 2
9.5982237 -5.9906497 -1.858874 8
15.759686 -9.8362741 -2.1724827 20
19.123047 -11.935488 -2.1030736 7
5.2613664 -3.2838371 -1.7784122 8
5.7725968 -3.6029172 -1.7813706 12
6.200932 -3.870259 -1.7319614 18
6.6997051 -4.1815643 -1.6786791 27
6.8126521 -4.252059 -1.513063 2
9.5714283 -6.0111322 -1.8569285 12
13.612554 -8.5490751 -1.8797829 12
5.2619433 -3.304652 -1.7817199 5
5.6855044 -3.5706604 -1.7575651 11
6.4752131 -4.0666203 -1.8117348 16
6.7327313 -4.2283492 -1.6899064 34
7.5480685 -4.7404041 -1.6793296 6
9.6603136 -6.1069961 -1.8776799 19
9.6644163 -6.1095896 -1.6068927 1
20.031935 -12.663662 -2.211014 8
5.6601667 -3.5782082 -1.7530066 9
6.4696989 -4.0899734 -1.8135793 16
6.7135429 -4.2441249 -1.6882432 11
7.6137123 -4.8131886 -1.6971042 2
9.7747726 -6.217628 -1.903295 7
10.840489 -6.8955183 -1.805632 5
19.964567 -12.699246 -2.2074842 8
5.6991277 -3.6251535 -1.7682016 9
6.1873107 -3.9356818 -1.7374947 33
6.6488433 -4.2292576 -1.6749368 8
8.4211273 -5.3565884 -1.8804047 9
7.8240962 -5.0114179 -1.5265269 6
12.176331 -7.7990713 -2.0322058 9
14.561317 -9.3266802 -2.0221839 13
22.106182 -14.159247 -2.4491889 21
5.6877108 -3.6430399 -1.7682016 9
6.0208716 -3.8564332 -1.6941496 17
9.7509766 -6.2840748 -1.9058889 8
12.244403 -7.8909783 -2.0472364 9
13.621859 -8.7786875 -1.8951148 4
5.666131 -3.651572 -1.7646561 9
6.7486033 -4.3491778 -1.7065393 16
8.3891926 -5.4064655 -1.8804047 9
9.6610928 -6.2667966 -1.8919467 28
12.196012 -7.9111056 -2.0430613 19
13.557421 -8.7942019 -1.8897719 8
22.472 -14.576762 -2.4989791 11
5.5384007 -3.5925574 -1.7281879 9
6.9539547 -4.5107756 -1.7618438 34
8.3582745 -5.4217062 -1.8770721 9
11.976208 -7.8131499 -2.0096598 33
14.489327 -9.4526825 -2.023113 4
22.010136 -14.359178 -2.4517899 21
5.5127716 -3.5964732 -1.7231228 7
6.3746457 -4.1587505 -1.8034347 16
6.7078233 -4.3761125 -1.7023811 17
8.3407602 -5.4414229 -1.8763316 9
9.6429825 -6.3342552 -1.8955132 22
11.862215 -7.7920179 -1.994629 27
16.114878 -10.585496 -2.2547174 16
5.7520995 -3.7784228 -1.8016307 5
6.158227 -4.0451984 -1.7457949 15
7.1207995 -4.6774907 -1.8109109 17
8.205349 -5.3899064 -1.8496696 15
9.582448 -6.3328681 -1.8870829 14
12.21383 -8.0719013 -2.0575352 11
16.09354 -10.635933 -2.2558789 22
6.1550241 -4.0677452 -1.7481005 15
6.8775868 -4.5452738 -1.7522799 34
8.1656694 -5.3965445 -1.8441149 31
9.9699802 -6.6340766 -1.9674947 31
12.150486 -8.0849972 -2.0511334 11
16.043509 -10.675434 -2.253556 21
23.070917 -15.351509 -2.5853684 12
6.1227722 -4.0741243 -1.7425672 15
7.0945463 -4.7207479 -1.8113269 27
8.158493 -5.4287038 -1.8463367 18
10.100654 -6.7617989 -1.9970007 15
12.177236 -8.1519489 -2.0594838 11
16.063158 -10.753347 -2.2605252 16
22.943567 -15.35938 -2.5758936 12
6.2585359 -4.1897244 -1.7845289 16
8.3752213 -5.6067219 -1.8989201 9
10.085007 -6.7921829 -1.9976492 15
12.238202 -8.2423458 -2.0736794 9
15.612922 -10.515197 -2.2012882 15
7.0485992 -4.7471833 -1.806337 14
8.2878036 -5.581779 -1.8826265 15
10.164029 -6.8867397 -2.0171037 13
11.637993 -7.8854394 -1.9757016 9
16.012716 -10.849578 -2.2619188 16
24.908249 -16.876835 -2.8070087 14
6.3939738 -4.3323016 -1.6416708 6
8.4218769 -5.7063274 -1.9166945 15
10.174111 -6.9351048 -2.0229399 15
12.182158 -8.303875 -2.0720093 9
14.076686 -9.5952654 -1.9922168 4
24.841276 -16.932865 -2.8047793 14
6.3786178 -4.3479357 -1.6408392 7
8.4757423 -5.7774248 -1.9326178 14
9.5078917 -6.5248237 -1.8945405 14
11.475053 -7.874795 -1.9559389 4
14.038282 -9.6338205 -1.9910554 4
24.669739 -16.929695 -2.7914028 14
6.3552494 -4.3613119 -1.6383443 6
8.5369558 -5.8585157 -1.9507625 9
10.159163 -7.0161915 -2.0284522 13
11.412524 -7.8817964 -1.9492586 6
14.02925 -9.6889772 -1.993843 9
24.734098 -17.082033 -2.8044076 14
6.3438907 -4.3812613 -1.6387601 7
8.5518799 -5.906158 -1.9581686 9
10.09577 -7.0141306 -2.0196974 18
11.366072 -7.8966851 -1.9450834 2
15.241988 -10.589515 -2.170392 15
24.761528 -17.203304 -2.8129539 14
6.338057 -4.4034247 -1.6404234 6
8.6079874 -5.9804802 -1.9748323 9
10.111732 -7.0671682 -2.0268309 13
11.408911 -7.9737768 -1.9562173 6
13.204777 -9.2289219 -1.8839645 12
6.3529954 -4.4401579 -1.6474924 18
8.586421 -6.0011172 -1.9737215 9
9.979723 -7.0216765 -2.0047824 18
11.346548 -7.9833674 -1.9498153 2
16.096796 -11.325615 -2.3016424 5
24.468458 -17.21587 -2.7912171 14
7.2173891 -5.078114 -1.8757794 7
8.5562744 -6.0201464 -1.9711294 9
9.9854727 -7.064877 -2.0096462 20
12.379757 -8.7588701 -2.1312971 7
13.180592 -9.3254738 -1.8881458 12
7.248786 -5.1286287 -1.8874224 7
8.5757818 -6.0674987 -1.9792761 9
10.021098 -7.1374297 -2.0213187 9
16.034534 -11.420441 -2.3021071 5
24.088291 -17.156651 -2.7590766 13
7.2756605 -5.1820183 -1.8986497 5
8.5438709 -6.085289 -1.9763136 9
10.033563 -7.1912746 -2.0281277 9
15.866569 -11.371917 -2.2828259 5
24.017859 -17.214127 -2.7568471 13
8.5289736 -6.1129022 -1.9770542 7
10.142788 -7.3098278 -2.0540671 8
11.79994 -8.5041246 -2.0441747 4
8.4411888 -6.083499 -1.9603904 9
10.010817 -7.2599454 -2.0316944 15
12.51538 -9.0762806 -2.1727705 7
8.337184 -6.0462098 -1.940394 9
9.8731918 -7.2075772 -2.0083492 16
12.561988 -9.1704378 -2.1858528 7
8.270524 -6.0376058 -1.9292849 7
10.02452 -7.3583555 -2.0430429 11
12.589027 -9.2407961 -2.1947598 7
16.735785 -12.284663 -2.4277821 6
8.115263 -5.956893 -1.8966982 4
10.061379 -7.4314504 -2.0550399 8
12.674664 -9.3616524 -2.2145226 7
16.45479 -12.153697 -2.3922398 6
8.5892239 -6.3440995 -2.0118628 7
9.706974 -7.2169242 -1.9872735 13
12.643601 -9.4002428 -2.2142441 5
16.365515 -12.167404 -2.3848064 6
8.2948084 -6.1670103 -1.9474299 4
9.9327688 -7.4225521 -2.0372066 7
12.872849 -9.6196127 -2.2585013 5
16.350056 -12.218058 -2.3868971 6
8.4277077 -6.2978511 -1.9822384 4
9.7374878 -7.3244095 -2.0018642 7
12.912205 -9.712389 -2.2707484 5
8.5099745 -6.4010901 -2.0063083 4
9.9423199 -7.5247741 -2.0485549 9
12.952818 -9.8032484 -2.2829957 2
17.063925 -12.91471 -2.502583 6
8.5175877 -6.446476 -2.0126035 7
9.9573851 -7.5800028 -2.0560124 8
13.005762 -9.9005623 -2.2971914 6
8.4870415 -6.460712 -2.0096409 4
9.9254503 -7.6023135 -2.0540671 8
8.4756365 -6.4918413 -2.0114925 2
9.4507933 -7.2807188 -1.9600371 7
12.005586 -9.2488832 -2.1299052 2
8.5197535 -6.5634623 -2.0263047 4
9.5009022 -7.3643446 -1.9749522 7
8.5390768 -6.6188145 -2.0355623 2
9.3731861 -7.3099713 -1.9529039 5
13.01404 -10.149405 -2.319459 3
8.5643463 -6.6791725 -2.0463011 2
9.7147703 -7.6228299 -2.0287764 7
13.008799 -10.207536 -2.3239126 3
8.9789429 -7.0835118 -1.8789768 1
12.873186 -10.15569 -2.3044283 3
9.8685379 -7.8357387 -2.0702791 6
12.786932 -10.152978 -2.2946863 3
8.773284 -7.0061274 -1.8446074 1
9.9584894 -7.9982495 -2.0984881 6
12.858193 -10.327173 -2.3177891 3
10.00379 -8.0835781 -2.1130788 2
10.128396 -8.2369957 -2.1448545 6
10.185938 -8.3817215 -2.1672273 2
10.255238 -8.486886 -2.187006 2
12.233522 -10.611969 -2.276037 2
10.380486 -9.0586662 -2.2635269 2
12.234814 -10.676868 -2.2821608 2
12.182621 -10.691398 -2.2779853 2
10.325292 -9.1125822 -2.2625539 2
10.309894 -9.1567707 -2.2654724 2
10.357879 -9.2512579 -2.2816842 2
12.72107 -11.36197 -2.3971176 6
18.014212 -16.0896 -2.8245528 8
11.393824 -10.237459 -2.1527297 2
17.852619 -16.040749 -2.8066657 8
10.308817 -9.3147306 -2.2826571 2
17.875553 -16.1518 -2.8173513 8
10.255013 -9.318265 -2.2764964 2
12.665947 -11.50897 -2.4051898 6
17.812737 -16.185625 -2.8145638 8
9.8165379 -8.9731607 -2.1850605 2
12.674135 -11.585251 -2.4132617 10
16.031572 -14.654237 -2.5399837 7
10.088963 -9.2805281 -2.2521782 2
12.104075 -11.19281 -2.3169539 6
9.6784878 -9.0064049 -2.1720908 2
18.984774 -28.574379 -4.0118451 20
18.763622 -28.434921 -3.9839694 19
18.615602 -28.361115 -3.9672434 19
18.525328 -28.417793 -3.9670115 19
18.351925 -28.324373 -3.9468012 19
18.154284 -28.213165 -3.9233384 18
18.042673 -28.223392 -3.9172988 37
17.971245 -28.285402 -3.9189248 18
19.702761 -31.010681 -3.4277127 23
17.917641 -28.375792 -3.9245 18
11.497009 -18.327803 -3.0406542 5
17.88615 -28.512966 -3.936115 18
18.704777 -29.817968 -3.283916 21
11.406963 -18.304686 -3.0311904 16
17.806725 -28.574343 -3.9372766 18
18.821592 -30.202896 -3.3201437 21
11.732066 -18.951414 -3.1325085 16
17.909029 -28.92938 -3.9788585 19
18.751816 -30.290779 -3.3236737 22
11.692591 -19.006031 -3.1361268 17
17.652266 -28.693342 -3.9395998 19
18.157955 -29.515331 -3.233011 20
11.615707 -18.999744 -3.129725 22
17.741995 -29.020475 -3.9776971 39
18.580269 -30.391638 -3.323302 22
11.567749 -19.040569 -3.1311166 22
17.66811 -29.081793 -3.9793231 19
11.522723 -19.086365 -3.1333435 22
17.55295 -29.074898 -3.971657 38
18.004744 -29.823254 -3.2501035 20
11.443077 -19.097286 -3.1288898 11
17.011271 -28.390013 -3.870374 18
18.235033 -30.432343 -2.4808192 19
12.389166 -20.816046 -3.4044528 25
16.856857 -28.322578 -3.8543451 35
17.772186 -29.860498 -3.2419288 20
12.366276 -20.910225 -3.4141948 25
16.798937 -28.405443 -3.8592234 17
17.916813 -30.29567 -3.2837303 21
12.302816 -20.936142 -3.4128032 25
16.781942 -28.558432 -3.873626 18
18.010712 -30.649473 -3.3166139 21
12.242641 -20.975971 -3.4133596 25
16.680115 -28.578934 -3.8696768 18
17.615547 -30.18166 -3.2603216 21
12.177061 -20.998087 -3.4114113 25
16.602232 -28.628836 -3.8701413 18
17.563162 -30.285862 -3.2662666 21
4.9947462 -8.6721144 -1.4064835 6
17.037718 -29.58169 -3.9920998 39
17.364893 -30.149746 -3.246016 20
17.954443 -31.173351 -2.5155578 20
12.037232 -21.03521 -3.4061227 25
15.912189 -27.806744 -3.746557 16
16.961172 -29.639854 -3.1860077 19
11.974526 -21.061857 -3.4050095 25
17.172613 -30.204712 -3.2415571 20
11.066261 -19.607428 -3.1642399 11
16.006617 -28.360847 -3.8083494 17
11.003639 -19.640368 -3.1639616 5
15.8786 -28.341673 -3.799057 16
16.900736 -30.16608 -3.2259514 20
4.876874 -8.7548189 -1.4084319 4
16.861864 -30.269918 -3.2326398 20
11.023155 -19.935503 -3.2015383 5
16.867861 -30.505722 -3.252147 20
11.662562 -21.23167 -3.4044528 12
15.785025 -28.736605 -3.8341348 35
16.752888 -30.498598 -3.2463877 20
6.2953968 -11.536991 -1.8471055 6
15.395473 -28.213858 -3.7586367 16
16.666698 -30.543516 -3.246202 20
10.798483 -19.929787 -3.1856725 11
15.331567 -28.296089 -3.763515 16
16.428961 -30.321449 -3.2174053 20
12.821071 -23.841209 -3.804436 14
15.237892 -28.335369 -3.7623537 16
16.694849 -31.044628 -3.2885604 21
12.697938 -23.761154 -3.7863436 29
15.164595 -28.376913 -3.7625859 32
15.949016 -29.844769 -3.1570253 19
12.531357 -23.627712 -3.7587874 14
15.078163 -28.429684 -3.7632828 49
16.039919 -30.243061 -3.1938107 20
12.490695 -23.700733 -3.7651894 29
15.043507 -28.544622 -3.7732716 33
15.022041 -28.503893 -3.0059831 17
12.448784 -23.792091 -3.773818 29
14.875866 -28.430725 -3.7523644 32
15.669506 -29.947529 -3.1533101 19
12.323357 -23.723471 -3.7571175 21
14.662329 -28.226183 -3.7196102 15
15.337318 -29.525593 -3.1040771 18
11.615365 -22.533298 -3.5628316 6
15.247222 -29.578939 -3.1046345 18
12.135054 -23.693577 -3.7412517 21
14.974017 -29.236624 -3.8413363 35
14.951124 -29.406649 -3.8578293 35
15.496033 -30.478403 -3.1899092 40
8.2081337 -16.270504 -2.9940419 14
11.979388 -23.746042 -3.7379115 21
14.549095 -28.839823 -3.7774534 33
15.109606 -29.95089 -3.1297154 19
8.200676 -16.369238 -3.0079844 10
11.950287 -23.853775 -3.7496021 7
13.955105 -27.855558 -3.6434155 14
15.148996 -30.238667 -3.1553535 19
8.1241665 -16.330229 -2.9966359 10
11.919799 -23.959755 -3.7610142 14
14.430266 -29.005997 -3.7886035 50
14.911936 -29.97419 -3.1233985 19
8.0564556 -16.315332 -2.9895024 14
15.692281 -31.778833 -3.3065815 43
6.7918553 -13.851662 -2.5345924 10
12.11381 -24.70553 -3.867064 7
14.57955 -29.734289 -3.8726969 18
7.7844524 -15.995904 -2.922709 10
12.437385 -25.556995 -3.9945467 23
13.551606 -27.846556 -3.6215792 28
14.817976 -30.448759 -3.159255 19
7.9907098 -16.551683 -3.0196571 14
11.963532 -24.780851 -3.8673425 15
13.519331 -28.003481 -3.6364462 29
16.118719 -33.38776 -3.4589243 24
7.94275 -16.570372 -3.0190086 17
11.926813 -24.88203 -3.8779197 7
13.302835 -27.752724 -3.5990458 14
7.8616753 -16.519424 -3.0057147 17
12.297294 -25.839811 -4.0218244 31
13.185165 -27.705462 -3.5881276 13
15.596549 -32.772404 -3.3860972 22
7.826108 -16.571232 -3.0109024 14
13.120712 -27.782185 -3.5930059 14
15.307898 -32.413395 -3.3442957 22
7.6938601 -16.402267 -2.9765329 17
12.058584 -25.707266 -3.9906499 23
13.085899 -27.897364 -3.6034596 14
14.98113 -31.937737 -3.2911615 21
7.7014003 -16.553404 -2.9995539 17
12.862445 -27.646563 -3.5658267 13
6.3373933 -13.621605 -2.8306055 11
11.267945 -24.408442 -3.7782717 7
12.672953 -27.451946 -3.5358598 13
6.2903576 -13.626072 -2.8276429 11
6.3784623 -13.925347 -2.5164347 7
11.209496 -24.472376 -3.7830036 14
12.526922 -27.348557 -3.5177402 12
14.862319 -32.447155 -3.3296189 44
6.2564497 -13.658971 -2.8306055 15
7.2575364 -15.94733 -2.878612 16
11.279285 -24.784512 -3.8269823 7
12.498734 -27.464062 -3.5286584 13
14.867126 -32.66824 -3.3485687 44
6.2124729 -13.650962 -2.8257916 15
6.9733315 -15.458601 -2.7862034 9
6.3058143 -13.978837 -2.1552348 5
12.403505 -27.496304 -3.5274968 13
6.1445408 -13.621324 -2.8154228 10
6.8102045 -15.203038 -2.7369187 2
11.162782 -24.919691 -3.8375595 7
12.372896 -27.621141 -3.5393443 13
14.552526 -32.486927 -3.3210728 21
6.1136808 -13.648126 -2.8176446 14
6.7495899 -15.1955 -2.7317309 11
11.05871 -24.896717 -3.8286524 7
14.584579 -32.834583 -3.351913 22
6.0651879 -13.654691 -2.8150525 14
6.7132277 -15.235327 -2.7352977 8
12.178303 -27.638037 -3.5319107 13
14.515999 -32.943317 -3.3586011 22
15.85001 -35.970787 -2.7486842 27
6.0246468 -13.672627 -2.8150525 14
10.926242 -24.985403 -3.8325493 7
11.947466 -27.320669 -3.4870765 12
15.173949 -34.698776 -3.5332382 25
15.739108 -35.991142 -2.7468705 27
6.0234542 -13.774034 -2.8324568 11
7.206296 -16.60504 -2.9739392 17
10.984945 -25.311958 -3.8779197 15
11.926481 -27.481483 -3.5033374 12
15.044487 -34.666119 -3.5256209 25
6.0209579 -13.873736 -2.8494909 18
7.4979925 -17.41851 -3.1156323 7
10.88004 -25.275312 -3.8673425 15
11.796981 -27.405447 -3.4891672 12
14.350266 -33.336956 -3.3860972 22
6.0924478 -14.153304 -2.9031849 15
5.9794588 -13.998329 -2.5008712 2
10.783743 -25.245493 -3.8581572 30
11.703238 -27.398096 -3.4840567 12
17.174091 -40.205742 -4.0788856 33
4.2273507 -9.8965216 -2.2874446 2
4.2748613 -10.007748 -2.0503745 2
10.319407 -24.358267 -3.7178705 7
11.524258 -27.202236 -3.4547865 24
14.23104 -33.591415 -3.4035609 23
4.1361542 -9.763114 -2.253763 5
6.0269303 -14.226164 -2.9109614 34
7.1897545 -17.112106 -3.0494871 14
10.797918 -25.699785 -3.9177232 22
12.229892 -29.107979 -3.6921988 15
14.354235 -34.164059 -3.4572525 24
4.1806736 -9.9502888 -2.2940977 4
5.9039955 -14.051913 -2.8717093 15
7.0722246 -16.981575 -3.0222509 14
10.759006 -25.834141 -3.9330323 22
11.532763 -27.692062 -3.5079837 12
13.984237 -33.578453 -3.3935285 23
4.1351027 -9.9290619 -2.2861972 10
5.8129721 -13.957901 -2.8487504 15
6.8926759 -16.665064 -2.9629147 10
10.479358 -25.336922 -3.8534253 22
11.489361 -27.778898 -3.5154171 12
16.712107 -40.406418 -4.0794425 33
4.1437283 -10.018678 -2.3044934 12
4.1360126 -10.000023 -2.0388949 7
6.8694797 -16.757853 -2.9755599 14
10.573987 -25.794867 -3.9180014 22
11.192573 -27.303885 -3.4508374 12
14.42943 -35.200085 -3.5492153 25
4.2035003 -10.254291 -2.3556397 14
5.6178865 -13.704636 -2.7906125 14
6.807096 -16.747082 -2.9700482 14
10.480254 -25.783928 -3.9115994 22
11.018013 -27.106941 -3.4217997 12
3.9234416 -9.6526031 -2.4688287 4
5.5660992 -13.693933 -2.785058 14
6.6621442 -16.522589 -2.926924 6
10.418579 -25.83881 -3.9154963 15
10.822672 -26.840988 -3.3843992 11
14.099856 -34.968639 -3.517632 24
3.9015653 -9.676157 -2.4720566 9
4.5686836 -11.330658 -2.5968173 24
6.7083273 -16.789013 -2.9703722 3
10.267539 -25.696695 -3.8890536 7
10.899711 -27.278841 -3.4352734 12
13.94855 -34.90921 -3.5072281 24
3.8595934 -9.6594524 -2.4646788 14
4.2223911 -10.56743 -2.4188449 26
5.7195587 -14.31441 -2.9042959 34
6.6316171 -16.723961 -2.9557815 6
10.635343 -26.820766 -4.0549479 24
10.804831 -27.24819 -3.4278395 12
13.981903 -35.2603 -3.5388114 25
3.4012017 -8.5773296 -2.4155121 3
3.8522274 -9.7147493 -2.4762068 14
4.1947131 -10.578448 -2.4188449 8
5.804503 -14.638101 -2.9668772 32
6.6094489 -16.804861 -2.9668057 3
10.328433 -26.260569 -3.9658771 31
10.766503 -27.374384 -3.4399192 12
11.432945 -29.068846 -2.914206 15
3.36024 -8.543582 -2.4033563 6
3.8151109 -9.7001143 -2.4697511 19
3.9789872 -10.116777 -2.3107307 30
5.5146999 -14.021406 -2.838752 15
6.4949961 -16.6674 -2.9389207 10
10.271049 -26.357473 -3.9756191 31
10.63501 -27.291468 -3.4252844 12
14.013909 -35.962368 -3.6008632 26
2.2183912 -5.6928158 -1.7519512 1
3.3284647 -8.5414762 -2.3998108 12
3.786031 -9.7156782 -2.4706733 19
4.1609874 -10.677888 -2.4358935 18
5.4727631 -14.044156 -2.8398628 11
6.4689817 -16.747349 -2.9496207 3
10.24561 -26.524546 -3.9962165 31
10.536095 -27.276573 -3.4194767 12
13.880601 -35.935062 -3.5939894 26
2.9572575 -7.6559534 -2.3533919 3
2.6275671 -6.8024282 -1.9090095 7
3.7564869 -9.7250538 -2.4702122 19
4.0961576 -10.604417 -2.4163499 4
5.4006186 -13.981496 -2.82394 15
6.8154116 -17.791872 -3.130223 30
10.009258 -26.12952 -3.9324753 22
10.523835 -27.472843 -3.4403839 12
14.152034 -36.944382 -3.6909685 27
2.4606872 -6.4237108 -2.1464856 1
2.9331152 -7.657001 -2.3511868 5
2.587105 -6.7537289 -1.8933078 2
3.7529833 -9.7972956 -2.4858902 24
9.7320423 -25.633257 -3.8534253 22
10.318183 -27.177095 -3.3994989 11
13.963902 -36.779564 -3.6703465 27
2.4334853 -6.4095645 -2.1393366 3
2.8885479 -7.6081553 -2.3335459 8
3.7425487 -9.8575115 -2.4983404 19
5.3423252 -14.071168 -2.8357897 11
5.2400942 -13.918909 -2.4434805 4
9.6911278 -25.741888 -3.8656723 22
10.44732 -27.750513 -3.4675632 24
13.862544 -36.822144 -3.6707182 27
2.4330668 -6.4627914 -2.1548259 6
3.6814094 -9.7786798 -2.4757457 24
5.5495334 -14.740851 -2.9676178 20
5.1880903 -13.898358 -2.43732 7
9.662838 -25.885746 -3.883208 30
10.201666 -27.32921 -3.4113462 24
13.686538 -36.664822 -3.6512108 26
