# .PCD v0.7 - Point Cloud Data file format
VERSION 0.7
FIELDS x y z intensity
SIZE 4 4 4 4
TYPE F F F F
COUNT 1 1 1 1
WIDTH 1385
HEIGHT 1
VIEWPOINT 0 0 0 1 0 0 0
POINTS 1385
DATA ascii
19.364567 -2.5081449 -1.3654132 17
28.73251 -3.721503 -1.3511058 22
4.7032876 -0.60918099 -1.6025056 16
5.0932307 -0.65968734 -1.6025661 18
5.5710778 -0.72157925 -1.6108248 16
5.9712229 -0.77340698 -1.5762371 23
6.7607737 -0.87567145 -1.6152984 12
7.4615846 -0.96644217 -1.5992569 12
8.012908 -1.0378509 -1.5223206 100
7.8805103 -1.0444859 -1.306043 5
10.763173 -1.426555 -1.525894 32
12.445608 -1.6495457 -1.4681449 31
15.447244 -2.0473835 -1.453759 28
19.616133 -2.5999298 -1.3836894 17
28.424263 -3.7673626 -1.3371308 33
4.6995807 -0.62288421 -1.6018654 16
5.1366749 -0.68081683 -1.6168643 17
5.568912 -0.73810577 -1.6108248 16
6.0302782 -0.79925537 -1.592445 19
6.7697201 -0.89726132 -1.618065 12
7.3888679 -0.97932339 -1.5842873 16
8.0351219 -1.0649781 -1.5271345 76
7.9182582 -1.0748127 -1.312852 5
10.799851 -1.4659557 -1.5317392 29
12.326197 -1.6731396 -1.4546714 51
15.048058 -2.0426009 -1.416788 23
19.671133 -2.6701305 -1.3881539 17
25.197298 -3.4202437 -1.1858279 18
5.1628885 -0.7008028 -1.6258005 15
5.5856166 -0.7581833 -1.6163375 14
5.9146214 -0.80284196 -1.5625614 23
6.7765107 -0.91983348 -1.6203706 12
7.5059428 -1.0188456 -1.6100683 12
8.2849197 -1.1245828 -1.5752741 20
7.8782735 -1.0903978 -1.3066915 5
10.772434 -1.4909662 -1.5283991 32
12.327677 -1.7062206 -1.4553684 46
15.074219 -2.0863576 -1.4197605 27
17.83403 -2.4683313 -1.2589648 3
28.313042 -3.9186859 -1.3329383 33
4.6940389 -0.64968163 -1.6012251 18
5.2007513 -0.71981353 -1.6383113 13
5.5893254 -0.77359438 -1.6179914 15
5.9546633 -0.82415926 -1.5737045 25
6.777935 -0.93810475 -1.6212929 12
7.5110011 -1.0395652 -1.6117315 12
8.0775261 -1.1179756 -1.5363922 44
7.8202891 -1.1060302 -1.2976128 5
10.560096 -1.4935232 -1.4988945 61
12.204547 -1.7260995 -1.4414303 20
15.302597 -2.1642594 -1.4418687 14
19.470221 -2.7536898 -1.3750397 17
28.220184 -3.9912047 -1.3291185 11
5.1191955 -0.72401214 -1.6132897 17
5.5870051 -0.7901749 -1.6179914 15
6.0460625 -0.8550998 -1.5985231 19
6.7616324 -0.95630348 -1.618065 12
7.5253167 -1.064312 -1.615474 12
7.8114576 -1.1047812 -1.4864012 22
9.3207531 -1.3481231 -1.5472784 13
10.739604 -1.5533409 -1.5250589 32
12.246247 -1.7712569 -1.4470054 20
15.413974 -2.2294266 -1.4530158 17
17.591543 -2.544383 -1.2429209 7
28.241119 -4.0847025 -1.3307023 11
5.1660237 -0.74719673 -1.6287793 17
5.6111336 -0.81157595 -1.6257092 14
6.089303 -0.88073677 -1.6106791 15
6.5101314 -0.94160396 -1.5585808 25
7.5258079 -1.0885081 -1.6163056 12
7.9246588 -1.1461966 -1.5086194 26
10.081325 -1.4832871 -1.4320914 9
14.482514 -2.1308436 -1.3656974 6
5.0867386 -0.74842286 -1.6043534 27
5.6262522 -0.82780266 -1.6306707 14
6.0507641 -0.89026201 -1.6010557 19
6.7812166 -0.99773508 -1.6240596 12
7.484417 -1.1011984 -1.6079891 12
8.0404482 -1.1830086 -1.5312079 38
9.324789 -1.4019192 -1.5492238 24
9.8592176 -1.482267 -1.4011949 6
14.481656 -2.1772196 -1.3662547 9
17.431059 -2.6206427 -1.2325969 10
24.385153 -3.6661437 -1.1499586 8
5.1919785 -0.78057903 -1.6383113 13
5.6198211 -0.84490234 -1.6295681 13
6.0651565 -0.91185552 -1.6056142 18
6.8088403 -1.0236633 -1.6314374 16
7.455771 -1.1209251 -1.6025834 13
8.1358147 -1.223165 -1.5500935 28
9.3130341 -1.4267579 -1.5479268 24
9.8237162 -1.5049945 -1.3967413 6
12.176001 -1.8653648 -1.440501 25
14.471582 -2.2170482 -1.3658831 9
27.688517 -4.2418838 -1.3062927 10
5.2294092 -0.80114609 -1.6508219 13
5.61554 -0.86030138 -1.6290169 13
6.0358119 -0.92468709 -1.5985231 21
6.8098025 -1.0432626 -1.6323597 13
8.3188705 -1.274452 -1.5856426 22
9.2695093 -1.4499089 -1.5414419 28
9.8091564 -1.5343188 -1.3953495 9
12.0484 -1.8845745 -1.4260983 22
19.153765 -2.9959745 -1.3556472 17
24.262304 -3.7950368 -1.145207 8
5.2268662 -0.81757081 -1.6508219 13
5.6052122 -0.87675047 -1.6268119 14
6.1112514 -0.95590365 -1.6192898 15
6.8314872 -1.0685607 -1.6383543 13
6.927134 -1.0835216 -1.4903111 15
8.3400688 -1.3045286 -1.5904566 18
9.2595778 -1.4748574 -1.5404693 31
12.086246 -1.9250869 -1.431209 8
13.309698 -2.119957 -1.2573853 3
19.096067 -3.041605 -1.3521595 17
24.263447 -3.8646607 -1.145766 8
5.2226777 -0.83186358 -1.6502262 12
5.6008425 -0.89209729 -1.6262604 14
6.1544147 -0.98026979 -1.6314459 13
6.8323202 -1.088246 -1.6392765 13
6.9549923 -1.1077851 -1.4969643 13
8.3771544 -1.3343058 -1.5982329 22
9.0408754 -1.4675413 -1.5048028 100
10.566496 -1.7151845 -1.5044613 19
11.996169 -1.947253 -1.4212201 11
13.273866 -2.1546526 -1.2545986 9
29.440254 -4.7788277 -1.3908881 11
5.2277246 -0.84857947 -1.6526092 12
5.6000695 -0.90901959 -1.6268119 15
6.1610284 -1.0000761 -1.6339782 13
6.829061 -1.1085131 -1.6392765 13
7.0192604 -1.1393868 -1.5115181 41
8.4332991 -1.3689177 -1.6097124 20
9.2239342 -1.5220507 -1.5359298 33
10.868766 -1.7934661 -1.5481617 22
11.124727 -1.8357027 -1.3185427 2
13.289793 -2.1929624 -1.2566422 9
29.080713 -4.7986383 -1.3744907 35
5.2537408 -0.86692518 -1.6615454 7
5.6090517 -0.92555535 -1.6301194 15
6.17557 -1.0190371 -1.6385368 13
6.8299761 -1.1270213 -1.6401987 13
7.085741 -1.1692253 -1.5264878 79
8.4529572 -1.3948311 -1.6141561 20
9.1938076 -1.5467649 -1.5317148 58
9.628726 -1.6199354 -1.3722469 6
16.220615 -2.7289538 -1.5345749 11
17.16428 -2.8877158 -1.2171109 3
27.286457 -4.5906696 -1.290361 10
5.6099076 -0.94381005 -1.6312219 14
6.1761546 -1.0390753 -1.6395499 13
6.8359976 -1.1500872 -1.6425045 13
7.425427 -1.2492528 -1.6005044 22
8.4562864 -1.4226844 -1.6156373 20
9.1291485 -1.5621139 -1.5216633 58
10.916496 -1.867952 -1.5565121 14
12.940456 -2.2142773 -1.53528 12
17.187614 -2.9410203 -1.2193432 3
31.656986 -5.4169149 -1.4977504 15
5.2428584 -0.89712 -1.6597581 5
5.6129346 -0.96044487 -1.6328758 14
6.1846709 -1.0582762 -1.642589 11
6.848105 -1.1717982 -1.6461933 13
7.3968415 -1.2656941 -1.5950986 25
8.4852133 -1.4519283 -1.6219324 22
9.4494543 -1.6440958 -1.5758115 21
10.721969 -1.8654985 -1.5295125 39
27.394236 -4.7662802 -1.2966963 10
5.2309279 -0.91012102 -1.6567794 10
5.6045489 -0.97512674 -1.6312219 14
6.185504 -1.0762062 -1.6436019 13
6.8428888 -1.1905836 -1.6457322 13
7.5069919 -1.3061298 -1.6196322 22
8.5062981 -1.4799975 -1.6267464 20
9.4600801 -1.674878 -1.5784054 18
10.733938 -1.9004105 -1.5320176 29
16.298647 -2.8856251 -1.5442356 15
28.593758 -5.0624366 -1.3541803 11
5.2300844 -0.92597032 -1.6573751 10
5.5959516 -0.9907459 -1.6295681 14
6.2032399 -1.0982645 -1.6491734 13
6.8009996 -1.204096 -1.6365099 16
7.5223465 -1.3318082 -1.6237905 22
8.5212221 -1.5086561 -1.6304495 21
8.6604004 -1.561373 -1.4457909 27
10.049623 -1.8118342 -1.4351531 39
15.993579 -2.8834627 -1.5161823 33
19.35199 -3.4889464 -1.3750397 13
30.46323 -5.4921784 -1.4435273 13
5.2309079 -0.94307393 -1.6585667 10
5.5928116 -1.008321 -1.6295681 14
6.2092795 -1.1194634 -1.651706 13
6.8469801 -1.2344337 -1.6484989 13
7.4911718 -1.3505741 -1.6179689 19
8.5087032 -1.5340238 -1.6289682 17
9.4405718 -1.72756 -1.5767844 15
10.339022 -1.8919702 -1.4771833 100
11.794442 -2.1583021 -1.4021713 11
16.399288 -3.0009575 -1.5553827 27
29.670532 -5.4295039 -1.4066333 12
4.8123493 -0.88062698 -1.653084 6
5.6109552 -1.0267664 -1.6356323 14
6.2234573 -1.1388501 -1.6562645 13
6.895412 -1.2618132 -1.6609491 13
7.4279561 -1.3592651 -1.6050783 19
9.4315224 -1.7548409 -1.5761358 16
10.477449 -1.9494473 -1.4977809 47
11.789938 -2.1936507 -1.4024036 11
16.278719 -3.0288386 -1.544793 31
19.120363 -3.5575585 -1.3599721 8
29.495197 -5.4879131 -1.3990868 12
4.8264804 -0.89802098 -1.6588461 7
5.6815968 -1.057125 -1.6571318 15
6.231463 -1.1594338 -1.6593035 13
6.8992901 -1.2836906 -1.6627935 13
7.4642792 -1.3888131 -1.6138108 18
7.499094 -1.3952909 -1.4371507 7
9.4007549 -1.7796898 -1.5719206 15
10.32338 -1.9543551 -1.4766268 26
11.847398 -2.2428722 -1.4100696 11
12.884208 -2.4391544 -1.2233869 11
19.038523 -3.6042492 -1.3549498 12
23.160997 -4.3846893 -1.0992758 7
4.8273587 -0.91388416 -1.6601267 7
5.2112231 -0.98655492 -1.6549922 7
5.6801376 -1.0753267 -1.6576831 11
6.2429981 -1.1818838 -1.6633555 11
6.8933115 -1.304997 -1.6623325 13
7.482945 -1.4166225 -1.6188005 19
7.4908113 -1.4181117 -1.4364101 7
9.3747444 -1.8002013 -1.568354 18
9.4313078 -1.8110629 -1.3497009 4
16.274694 -3.1251757 -1.5460936 15
19.025101 -3.6533272 -1.3546706 12
23.131781 -4.4419193 -1.0984373 7
4.8361144 -0.92866307 -1.6639681 7
5.2142477 -1.0012747 -1.6567794 8
6.1866798 -1.1880077 -1.6491734 18
6.9032497 -1.3256083 -1.6655602 13
7.5752702 -1.4546541 -1.6395917 18
7.5140953 -1.4429069 -1.4415942 5
9.450717 -1.8438814 -1.5819721 18
12.170035 -2.3744338 -1.4500253 34
15.971128 -3.1160455 -1.1378676 3
32.565907 -6.3537683 -1.5473154 17
83.293488 -16.250969 0 63
5.1962628 -1.0138165 -1.6520135 10
6.1033707 -1.1907977 -1.6279004 24
6.9088364 -1.347948 -1.6678659 13
7.5786018 -1.4786226 -1.641255 16
7.5174971 -1.4667007 -1.4430755 5
9.435524 -1.8699955 -1.5803509 19
9.9021969 -1.9624838 -1.4187306 8
11.991464 -2.3765488 -1.4295828 24
16.228516 -3.2162759 -1.5434926 27
17.821024 -3.5318899 -1.2704049 3
32.284313 -6.3983212 -1.5348309 16
5.1651402 -1.0236621 -1.6430771 10
6.2497439 -1.2386161 -1.667914 13
6.8818994 -1.3639009 -1.6623325 13
7.583776 -1.5030036 -1.6433342 19
8.5156326 -1.6876853 -1.6356337 10
8.6663189 -1.7411411 -1.4522756 19
10.289256 -2.0672035 -1.4749566 35
11.584005 -2.3273304 -1.3817288 5
16.286417 -3.2720871 -1.5498091 31
18.251823 -3.6669545 -1.3017952 4
28.714384 -5.7689767 -1.3658262 11
4.8112769 -0.96662861 -1.658206 7
5.1624422 -1.0371809 -1.6430771 10
5.6715412 -1.1394633 -1.6587857 5
6.2464795 -1.2549736 -1.667914 11
6.8649487 -1.3792297 -1.6591047 13
7.5989947 -1.526706 -1.6474924 16
8.4437428 -1.6964235 -1.6226732 10
9.2273655 -1.8840382 -1.5472784 57
9.9023724 -2.0218606 -1.4204007 3
11.551334 -2.3585448 -1.378709 10
15.40782 -3.1459599 -1.4671353 3
19.8451 -4.0519614 -1.4163355 13
28.733313 -5.8667512 -1.3675964 11
4.8137856 -0.98287594 -1.6601267 7
5.155417 -1.0526301 -1.6418856 11
5.577518 -1.1388144 -1.6323246 11
6.2500887 -1.2761395 -1.66994 9
6.8529544 -1.3992323 -1.6572601 13
7.6114116 -1.5540937 -1.6512347 16
8.4595537 -1.7272668 -1.6267464 10
9.4307823 -1.9530212 -1.5822964 30
9.3730536 -1.941066 -1.3452473 3
18.001163 -3.7278616 -1.2854724 3
4.829576 -1.0001571 -1.6665291 8
5.1599364 -1.0685714 -1.6442688 12
5.6082025 -1.1614028 -1.6422474 11
6.8242469 -1.4132335 -1.6512656 13
7.6185365 -1.577723 -1.6537298 13
8.4546976 -1.7508837 -1.6267464 10
9.3689375 -1.9692217 -1.5728934 30
9.3924494 -1.9741637 -1.3488657 4
12.447345 -2.6162608 -1.4874259 60
15.231595 -3.2014718 -1.4520869 7
17.997833 -3.7828968 -1.2860303 11
29.905346 -6.2856927 -1.4250803 13
4.8302956 -1.0152618 -1.6678094 8
5.1660848 -1.08584 -1.6472474 13
5.664937 -1.1906918 -1.6598883 11
6.2009797 -1.3033606 -1.6587969 9
6.8371639 -1.4370779 -1.6554157 13
7.5985055 -1.5971013 -1.6504031 13
8.4398479 -1.77394 -1.6248949 10
9.5290451 -2.0324152 -1.6007781 22
10.883828 -2.321372 -1.5640274 13
12.577464 -2.6826015 -1.5039194 96
17.918234 -3.8217149 -1.2811474 15
17.749056 -3.7856314 -0.84632778 13
4.8291154 -1.0299844 -1.6684498 8
5.1609731 -1.1007651 -1.6466517 13
5.6369362 -1.2022815 -1.6527216 11
6.1989775 -1.3221573 -1.6593035 11
6.8138371 -1.4532983 -1.6508045 13
7.5784278 -1.6163751 -1.6470766 13
8.3999491 -1.7915944 -1.6182295 12
8.4238176 -1.8212938 -1.4159607 2
10.896661 -2.3559415 -1.5668108 17
12.381588 -2.6769941 -1.4813861 23
17.981596 -3.8877587 -1.286449 15
17.902443 -3.870645 -0.85415375 14
5.1448169 -1.1123487 -1.6424814 13
5.6617436 -1.2241123 -1.6609908 11
6.1839151 -1.3370097 -1.6562645 13
6.8078504 -1.4719093 -1.6503434 13
7.5930057 -1.6416658 -1.6512347 13
8.4102812 -1.8183671 -1.6211919 16
9.4994669 -2.0851176 -1.59786 12
12.140285 -2.6647727 -1.4535099 17
14.142444 -3.1042433 -1.3508346 3
18.033602 -3.9583461 -1.2910528 7
17.792625 -3.9054523 -0.84949541 14
5.139431 -1.1280968 -1.6418856 13
5.6484804 -1.2398322 -1.6582345 11
6.1683445 -1.3539416 -1.6532254 13
6.8031921 -1.4932896 -1.6503434 13
7.5916324 -1.6663508 -1.6520665 15
8.3757315 -1.8384594 -1.6156373 14
9.5078306 -2.1113176 -1.6001297 9
10.506311 -2.3330412 -1.5125334 61
12.044533 -2.6746199 -1.4428241 11
16.465672 -3.6563821 -1.5735894 20
17.760939 -3.9440103 -1.2722186 3
17.759628 -3.9437191 -0.84837747 13
5.1385236 -1.1410654 -1.6424814 12
5.6416802 -1.2527966 -1.6571318 12
6.1706843 -1.3702679 -1.654745 13
6.795723 -1.5090646 -1.6494211 13
7.593267 -1.6861678 -1.6533139 13
8.3539448 -1.8550848 -1.6123044 14
9.41644 -2.1220863 -1.585863 18
11.061167 -2.4927416 -1.5935322 19
12.760832 -2.8757777 -1.5297048 18
17.446783 -3.9318023 -1.2505941 3
17.838751 -4.0201359 -0.85275632 14
5.1423635 -1.1588817 -1.6448644 12
5.6095853 -1.2641746 -1.6488627 12
6.1625743 -1.388796 -1.6537319 13
6.8042383 -1.5334014 -1.6526489 13
7.6108336 -1.7151754 -1.6583037 13
8.3499937 -1.8817524 -1.6126748 14
9.4239454 -2.1514482 -1.5881327 16
10.988513 -2.5086329 -1.5840684 24
12.588138 -2.8738205 -1.5099592 18
17.804083 -4.0645995 -0.85163832 4
4.821269 -1.1006762 -1.6710106 8
5.1316624 -1.1715376 -1.6424814 11
5.6247759 -1.2841134 -1.6543756 21
6.1624446 -1.4068611 -1.654745 13
6.8208003 -1.557161 -1.6577213 13
7.2474561 -1.6545646 -1.580129 58
8.333209 -1.9024377 -1.6104529 14
9.4767418 -2.1948481 -1.5981842 30
10.731677 -2.4854956 -1.5481617 63
12.718384 -2.9456244 -1.5266849 12
15.605369 -3.6142604 -1.4944457 10
19.541754 -4.5259418 -1.4026632 18
37.139496 -8.6016426 -1.7778101 25
4.8214798 -1.1166723 -1.6722912 8
5.1688752 -1.1971304 -1.6555879 11
5.7181072 -1.3243345 -1.6830418 10
6.150455 -1.4244678 -1.652719 15
6.82725 -1.5812161 -1.6604879 13
7.5014172 -1.7373556 -1.636681 18
8.3405952 -1.9317123 -1.6130452 16
9.4298401 -2.2134855 -1.5913752 24
10.683765 -2.5078218 -1.5423164 34
11.914755 -2.7967744 -1.431209 8
14.516683 -3.4075301 -1.3911498 9
19.401987 -4.5542674 -1.3935949 9
40.739223 -9.5628004 -1.9514731 26
4.8310575 -1.1340039 -1.6767728 11
5.2099094 -1.2229326 -1.669886 10
5.6205702 -1.3193278 -1.6554781 20
6.1706882 -1.4484581 -1.6593035 15
6.670959 -1.5658877 -1.6235985 21
7.6600199 -1.7980518 -1.6724418 16
8.2908182 -1.9461204 -1.6045282 16
10.623208 -2.5229692 -1.5345228 26
12.761647 -3.0308399 -1.5338862 15
15.685687 -3.7252877 -1.5041064 10
21.090431 -5.0088925 -1.5158082 15
31.897141 -7.5754423 -1.5288681 16
80.631218 -19.14959 0 63
4.831759 -1.1475233 -1.6780531 13
5.2234077 -1.2405382 -1.6752476 11
5.6676002 -1.3460321 -1.6703625 13
6.2214651 -1.4775729 -1.673992 13
6.3828187 -1.5158937 -1.5544306 37
7.683836 -1.8248801 -1.6786791 13
8.2818708 -1.966911 -1.6037875 16
10.905978 -2.6263475 -1.576553 32
12.875663 -3.1006818 -1.5487535 15
15.704884 -3.7820067 -1.5070789 14
21.010582 -5.0597105 -1.5112042 15
40.298897 -9.704669 -1.9330261 27
4.8391824 -1.1653585 -1.6818947 11
5.2083483 -1.2542601 -1.6716732 11
5.6128783 -1.3516779 -1.6554781 20
6.2280793 -1.4998288 -1.677031 13
6.2796397 -1.5122455 -1.5304526 11
7.6875749 -1.8513005 -1.6807584 14
8.264185 -1.9901583 -1.6015657 14
9.4776735 -2.3104076 -1.6027236 16
11.123731 -2.7116733 -1.6091195 22
12.942223 -3.1549737 -1.5578133 21
15.638153 -3.8121707 -1.5016911 14
19.116156 -4.6600165 -1.3758767 8
4.8395915 -1.1797651 -1.6831751 13
5.1751471 -1.2615649 -1.6621412 12
5.6669841 -1.3814617 -1.6725676 16
6.2332654 -1.5195062 -1.6795636 13
6.7329531 -1.641317 -1.6420432 16
8.3387947 -2.032779 -1.6171185 14
11.091119 -2.7365584 -1.6055009 27
12.17927 -3.0050426 -1.4669834 11
20.815411 -5.1358738 -1.4992061 19
31.399218 -7.747261 -1.5081853 15
4.8381176 -1.193729 -1.6838154 11
5.1864324 -1.2796704 -1.6669072 10
5.6332397 -1.389913 -1.6637472 21
5.4757323 -1.3510505 -1.4764559 14
6.8341532 -1.6862195 -1.6678659 13
8.357892 -2.0621779 -1.6219324 18
9.5373831 -2.3814733 -1.6150447 31
11.200648 -2.7967885 -1.6224802 17
15.75959 -3.9351509 -1.5154392 60
20.636452 -5.1528974 -1.4873475 19
31.517019 -7.8697619 -1.5148932 16
80.246178 -20.037374 0 63
4.8439569 -1.2095302 -1.6870166 13
5.1680207 -1.2904485 -1.6621412 12
5.6069527 -1.4000493 -1.6571318 25
5.4625521 -1.3639927 -1.4739234 14
6.8407464 -1.7081262 -1.6706326 13
6.8993015 -1.7227473 -1.5115181 15
8.3120575 -2.0755107 -1.6141561 18
8.3061132 -2.098685 -1.4075304 2
9.9504309 -2.5141504 -1.4423901 13
12.938449 -3.2691257 -1.5606009 71
20.598772 -5.2046404 -1.4856733 19
30.886715 -7.8040695 -1.4856389 30
4.8460708 -1.2244446 -1.6889371 11
5.1680984 -1.3058106 -1.6633326 11
6.109642 -1.543708 -1.6496799 13
6.8623657 -1.7338967 -1.6770883 14
6.7844558 -1.7142116 -1.4874004 11
8.4491434 -2.134824 -1.6419288 12
9.5139494 -2.433919 -1.6134235 13
9.956358 -2.5470986 -1.4443386 9
12.299386 -3.1465068 -1.4846383 25
14.202932 -3.6334844 -1.367741 9
20.473064 -5.2375493 -1.4777212 43
31.596979 -8.0833397 -1.520949 16
79.813606 -20.418423 0 63
4.8387456 -1.2378787 -1.6876568 11
5.167901 -1.3220851 -1.6645242 11
5.6919236 -1.456144 -1.6846957 18
5.3308926 -1.3637828 -1.4404942 15
6.8421078 -1.7503914 -1.6733993 13
6.7793398 -1.7343338 -1.4874004 8
8.338047 -2.1330919 -1.6215621 22
9.8912392 -2.5617323 -1.4359882 6
12.74575 -3.3010223 -1.5396937 12
14.159317 -3.6671219 -1.3645827 9
20.449709 -5.2962704 -1.4771631 19
31.400724 -8.1324749 -1.5126572 16
4.807538 -1.2451044 -1.6780531 11
5.162107 -1.3369343 -1.6639285 11
5.6038275 -1.4513355 -1.6598883 25
6.0985007 -1.5794508 -1.6491734 20
6.8255801 -1.7677572 -1.6706326 13
6.7912083 -1.7588552 -1.4911427 9
8.4249105 -2.181968 -1.639707 21
9.492136 -2.4866741 -1.6121265 30
9.8668032 -2.5848262 -1.433483 6
13.345634 -3.4961827 -1.6133332 26
15.928966 -4.1729431 -1.5362469 11
20.430979 -5.3523445 -1.476884 19
31.377892 -8.220129 -1.5126572 16
4.7930446 -1.2556435 -1.6742117 13
5.1971383 -1.3615047 -1.6764392 10
5.7076192 -1.4952365 -1.6918622 13
6.1633172 -1.6146166 -1.667914 18
6.8074389 -1.7833585 -1.6674048 13
6.8998165 -1.8075588 -1.5160922 20
8.285697 -2.1706207 -1.6137857 42
9.2873707 -2.4659717 -1.5787297 37
13.416526 -3.56234 -1.6233222 32
14.152049 -3.7576354 -1.3660688 3
18.926388 -5.0253124 -1.3693196 8
4.785192 -1.2705585 -1.6729313 11
5.1944399 -1.3792216 -1.6770349 10
5.6859059 -1.5097151 -1.6869007 15
6.0849986 -1.6156816 -1.6481605 45
6.8014879 -1.805923 -1.6674048 16
6.8484058 -1.8183807 -1.5061125 11
8.2499599 -2.1905196 -1.6082313 64
8.8534985 -2.3772569 -1.5060998 30
9.8833466 -2.6537819 -1.4382149 3
12.60267 -3.3839488 -1.525988 27
15.285822 -4.104403 -1.4766103 14
20.654177 -5.5458622 -1.4954393 4
30.4048 -8.1640072 -1.4681234 14
72.372452 -19.432762 0 63
4.7578359 -1.2775286 -1.6646084 10
5.1960993 -1.395207 -1.6788222 10
5.607398 -1.505645 -1.6648498 20
5.7123461 -1.5338247 -1.5483793 25
6.5652347 -1.7628342 -1.6106873 15
6.8055139 -1.8273517 -1.4977959 9
8.167881 -2.1931617 -1.593419 18
8.4339275 -2.2882864 -1.4357393 2
11.116884 -3.0162239 -1.6188617 11
12.526669 -3.3987253 -1.5178574 12
15.242352 -4.1355424 -1.473452 10
20.782074 -5.6385751 -1.5057632 20
30.360186 -8.2373009 -1.4670054 14
71.786621 -19.477087 -1.7269297 58
4.721559 -1.2810495 -1.653084 10
5.1684756 -1.4023066 -1.6710774 11
5.7110529 -1.5495181 -1.6968236 12
5.936121 -1.6105834 -1.6101726 24
5.5933175 -1.5175743 -1.3732111 1
6.9479733 -1.8851184 -1.5302302 54
8.2929945 -2.2500484 -1.61897 38
9.6046848 -2.6383584 -1.6364447 11
11.139819 -3.0600519 -1.6235934 24
12.479534 -3.4280648 -1.5134437 6
20.160164 -5.5378947 -1.4619561 9
35.414253 -9.728116 -1.7126864 22
71.649879 -19.68186 -1.7251192 57
72.614182 -19.946749 0 63
4.6974134 -1.2903557 -1.6460415 12
5.0701528 -1.3927454 -1.6406943 12
5.5096483 -1.5134724 -1.6383885 39
5.594152 -1.5366852 -1.3745944 1
8.4450827 -2.3198216 -1.6500757 31
9.6053514 -2.6656048 -1.6377416 11
11.103145 -3.0812612 -1.6194184 26
15.884117 -4.4080405 -1.537919 15
19.932203 -5.531435 -1.4464701 9
34.822697 -9.6637316 -1.6852953 22
71.819672 -19.930855 -1.7304577 58
4.7031488 -1.3051825 -1.6492428 15
5.1161609 -1.4197985 -1.6567794 10
5.4204516 -1.5042429 -1.6130298 37
6.1299596 -1.7011402 -1.6653814 13
6.5933671 -1.8297416 -1.6212929 21
8.5791254 -2.3808143 -1.6774781 17
9.5745983 -2.6876922 -1.6338506 11
11.179761 -3.1382785 -1.6319439 30
13.328486 -3.7414484 -1.6189085 13
15.59872 -4.378727 -1.5115378 7
19.906099 -5.5878544 -1.4457728 13
29.992853 -8.4193144 -1.4527508 14
72.363007 -20.31307 0 63
4.7393885 -1.330397 -1.6633278 13
5.106411 -1.4334241 -1.6549922 11
5.3826466 -1.5109664 -1.603107 50
6.1528273 -1.7271644 -1.6729791 15
6.5223293 -1.8308876 -1.6051538 12
6.867219 -1.9277018 -1.5160922 12
8.4452419 -2.3706696 -1.6526678 40
9.6349287 -2.7354932 -1.6455234 9
11.212316 -3.1833358 -1.6380675 35
13.246622 -3.7609043 -1.6103133 29
19.580429 -5.5591621 -1.4233111 4
71.350075 -20.257299 -1.7220089 57
4.7117248 -1.3377256 -1.6550047 15
5.0543838 -1.4350114 -1.6395026 15
5.5519862 -1.5762879 -1.6549268 22
5.231946 -1.4854238 -1.4237796 3
5.3636394 -1.5228134 -1.3211048 1
6.8727612 -1.9512746 -1.5185871 12
8.2755709 -2.3495522 -1.6208216 18
9.6566353 -2.7744682 -1.6507112 9
11.286016 -3.2426085 -1.6503148 27
13.143099 -3.7761712 -1.5991629 29
16.295141 -4.6817913 -1.581764 16
19.996233 -5.7451596 -1.454841 14
71.939468 -20.669077 -1.7377924 58
71.849289 -20.643167 0 63
4.7111416 -1.3535678 -1.6562853 13
5.1360941 -1.4756619 -1.6675029 17
5.4878783 -1.5767337 -1.6372859 33
5.2086577 -1.4965103 -1.4187146 11
5.4224238 -1.557928 -1.3367827 1
8.4136009 -2.4173293 -1.6493349 55
9.668293 -2.8052394 -1.6539537 9
11.235641 -3.2600029 -1.644191 29
12.198355 -3.5393329 -1.4853352 23
15.6498 -4.5407643 -1.5202696 3
20.03286 -5.8125014 -1.4586079 14
29.501883 -8.5599232 -1.4325336 13
71.981117 -20.885204 -1.7401134 58
4.7094011 -1.366425 -1.6569254 13
5.1028757 -1.4805912 -1.657971 15
5.6259027 -1.6323465 -1.6797341 20
5.1452599 -1.4928888 -1.4025065 16
6.8614082 -1.9908265 -1.5185871 17
8.3883686 -2.4338715 -1.6456319 55
11.358949 -3.3323524 -1.6636753 19
12.100118 -3.5497875 -1.4746494 11
20.122734 -5.9033666 -1.4664207 14
29.405424 -8.6266117 -1.4290864 13
71.742325 -21.046904 -1.7358426 58
4.6816902 -1.3734581 -1.6486024 13
5.0984602 -1.4957253 -1.657971 21
5.3332491 -1.5646048 -1.5937352 24
4.9747949 -1.4594457 -1.2284198 3
6.9587164 -2.0414648 -1.5414574 48
8.2340069 -2.4155941 -1.6167482 48
9.5563774 -2.8361714 -1.6377416 27
11.190834 -3.3212502 -1.6405725 29
19.914736 -5.9103565 -1.4526088 4
27.221596 -8.0789099 -1.3241806 11
4.6700869 -1.3860028 -1.6460415 13
5.1120396 -1.5171669 -1.6639285 18
5.3780708 -1.5961205 -1.6086197 24
5.4513674 -1.6178737 -1.4886119 10
4.9720516 -1.4756209 -1.228881 3
7.3986244 -2.1957867 -1.6404234 21
7.9418645 -2.3570111 -1.5608323 16
9.6760883 -2.8974442 -1.6594657 21
10.837378 -3.2451849 -1.5899136 42
17.023972 -5.0977221 -1.6579355 21
19.928902 -5.9675851 -1.4547014 9
27.184549 -8.1402435 -1.3233421 22
4.6685009 -1.3979534 -1.6466817 13
5.0040655 -1.4984361 -1.6299707 16
5.5030751 -1.6478615 -1.6472089 48
5.2657561 -1.5767978 -1.4389747 3
5.0224967 -1.5039552 -1.2422535 1
7.2339401 -2.1661582 -1.6050783 28
7.8720655 -2.3572409 -1.548242 20
9.5233898 -2.8843515 -1.6348234 40
10.883992 -3.2964377 -1.598264 30
13.509773 -4.0917087 -1.6507338 30
17.055519 -5.1656098 -1.66258 18
19.915785 -6.0318985 -1.45512 4
27.254444 -8.2545605 -1.3280004 11
4.6640859 -1.4126129 -1.6466817 13
5.118104 -1.5501215 -1.6686944 20
5.3175526 -1.6105285 -1.593184 19
5.1626344 -1.5636084 -1.41213 3
6.5469117 -1.9828649 -1.6208317 12
7.1334844 -2.1605203 -1.5842873 22
7.8081899 -2.3648684 -1.5371327 12
9.4053373 -2.8790905 -1.6160175 61
10.957491 -3.3542242 -1.6105113 73
13.659027 -4.1811981 -1.6704794 20
17.040117 -5.2161918 -1.66258 22
20.927982 -6.4063158 -1.530457 15
37.100506 -11.356925 -1.8093936 26
4.6616864 -1.4270002 -1.6473221 13
5.2175407 -1.597154 -1.7026521 13
5.3458405 -1.6364281 -1.603107 24
4.9637156 -1.5194551 -1.3589473 5
6.6321831 -2.0301936 -1.6434265 16
6.9455924 -2.126132 -1.5439523 16
9.3468571 -2.8879733 -1.607263 97
10.978949 -3.3922541 -1.6149647 29
13.057777 -4.0345664 -1.5982337 35
16.250141 -5.020937 -1.5867802 28
20.937826 -6.4693284 -1.5324101 15
4.6561241 -1.43864 -1.6466817 13
5.1713872 -1.597845 -1.6889498 16
5.4646063 -1.6884433 -1.6400423 50
4.9541755 -1.5307314 -1.3574277 1
6.6268454 -2.0475497 -1.6434265 19
7.0745783 -2.1858892 -1.5738916 18
8.0802898 -2.4966319 -1.593419 14
9.3961344 -2.9355676 -1.6173145 97
10.987143 -3.4326351 -1.6177483 21
12.957818 -4.0483193 -1.5875478 22
16.169661 -5.0517726 -1.5804634 12
20.881216 -6.5237708 -1.5297594 20
63.285271 -19.771769 -3.0919285 49
4.6353049 -1.4481755 -1.6409197 13
5.1663418 -1.6140836 -1.6889498 18
5.4812956 -1.7124823 -1.6466577 16
5.8043962 -1.8134265 -1.5919386 17
5.2141995 -1.6290355 -1.2943598 1
7.1292963 -2.2273557 -1.5876138 16
9.6758604 -3.052644 -1.6669233 22
10.924628 -3.4466186 -1.6099546 21
12.590311 -3.9721262 -1.5438752 12
14.934381 -4.7116585 -1.4610045 3
36.66098 -11.566198 -1.7927167 25
4.6529255 -1.4679549 -1.6486024 12
5.1508899 -1.6250579 -1.6853755 22
5.3976541 -1.7029097 -1.6229529 85
5.2679057 -1.6619753 -1.4460657 5
5.239325 -1.6529584 -1.3017378 1
6.6286521 -2.0912781 -1.4774207 23
8.4889355 -2.6781802 -1.6771078 14
9.499939 -3.0263374 -1.6380658 47
10.89609 -3.4711006 -1.6071711 29
12.704091 -4.0470643 -1.5592071 34
21.564936 -6.8698096 -1.5826349 5
4.6578355 -1.4838182 -1.6518036 12
5.1754379 -1.6487075 -1.6949073 23
5.337923 -1.7004695 -1.6064146 18
5.2798362 -1.6819651 -1.4506242 1
7.2584095 -2.3122671 -1.6192164 46
9.3688068 -3.0152113 -1.6169902 24
10.883858 -3.5028081 -1.6068927 26
12.988906 -4.1802864 -1.5956784 16
15.833945 -5.0959201 -1.5518528 11
23.001139 -7.402575 -1.6896414 23
73.08934 -23.522718 -1.7826356 60
4.6588235 -1.4993732 -1.6537243 12
5.261394 -1.6933016 -1.724695 16
5.5122018 -1.7740203 -1.6604395 43
7.4247046 -2.3895309 -1.6578879 48
8.2207966 -2.6457415 -1.6271167 46
9.3110218 -3.0271311 -1.60856 19
10.892253 -3.5412092 -1.6096762 22
13.293819 -4.3219891 -1.6347049 30
14.165485 -4.6053786 -1.3896635 3
21.675579 -7.0470052 -1.5937959 5
4.6543546 -1.5131896 -1.6537243 12
5.2835817 -1.7177591 -1.7336311 11
5.6275835 -1.8295987 -1.6968236 27
5.3930426 -1.7533464 -1.48456 16
5.3301945 -1.7329136 -1.3280215 3
7.4771161 -2.4309051 -1.6711943 58
8.1437531 -2.6476371 -1.6134155 18
9.3700361 -3.0752759 -1.6202326 24
10.878556 -3.5703769 -1.6091195 24
12.857032 -4.2197189 -1.5824372 19
16.107061 -5.2863894 -1.5815783 8
23.032051 -7.5591931 -1.6950823 23
4.6717134 -1.5332713 -1.6614071 12
5.2606239 -1.7265536 -1.7276736 12
5.5713062 -1.8285204 -1.681388 25
5.3641648 -1.7605361 -1.3377049 1
7.4981804 -2.4609268 -1.6774317 24
8.4407158 -2.7702699 -1.673775 23
9.3365183 -3.0949907 -1.6160175 22
11.161186 -3.6998556 -1.6525415 17
12.391921 -4.1078358 -1.5266849 9
22.102396 -7.3267908 -1.6282556 5
4.6725392 -1.5489143 -1.6633278 13
5.3007841 -1.7571731 -1.7425674 10
5.5987039 -1.8559315 -1.6913109 16
6.161541 -2.0425081 -1.6993172 11
5.4586701 -1.8095113 -1.3626053 1
7.4648476 -2.4745452 -1.6716101 26
8.3652983 -2.7730384 -1.6604441 36
9.2936068 -3.1114011 -1.6101811 25
11.150159 -3.732955 -1.6525415 16
12.349538 -4.1344943 -1.5229681 6
15.669415 -5.245954 -1.5416347 15
22.161915 -7.4195743 -1.6342547 5
4.6715164 -1.5639741 -1.6646084 12
5.2720108 -1.7650135 -1.7348226 13
5.6059337 -1.8768072 -1.6951698 16
8.373807 -2.803462 -1.6637768 21
9.3091879 -3.1455543 -1.6143962 30
11.081525 -3.7444229 -1.6439128 19
13.403117 -4.5288839 -1.6544507 13
23.530361 -7.9508576 -1.7367966 30
4.6671309 -1.5770133 -1.6646084 13
5.2833405 -1.7852292 -1.7401844 13
5.5824575 -1.8863002 -1.6896571 17
5.1708589 -1.7472219 -1.4288447 1
6.2630763 -2.1162798 -1.5664197 17
9.3937635 -3.2033877 -1.6306083 19
10.216236 -3.4838607 -1.516987 3
13.444942 -4.5848889 -1.6611874 16
16.782047 -5.7228818 -1.6542197 13
23.47974 -8.0068769 -1.734704 24
72.7742 -24.816887 -1.7851424 60
4.6806421 -1.5961559 -1.6710106 14
5.2638779 -1.7950463 -1.7354183 16
5.5808077 -1.9031233 -1.6907597 16
6.1310291 -2.0907555 -1.6957716 11
6.3197694 -2.1551182 -1.5820979 18
6.1380377 -2.0931456 -1.3784546 5
7.3665166 -2.5120716 -1.4664047 9
9.4153748 -3.2438116 -1.6361203 16
9.9842825 -3.4398136 -1.4841421 4
17.451187 -6.0123329 -1.7220308 23
23.607264 -8.1332417 -1.7460045 12
61.082302 -21.044249 -3.01283 47
4.6935191 -1.6170245 -1.677413 13
5.2780685 -1.8184153 -1.7419715 13
5.6129723 -1.9337972 -1.7023363 17
6.1116261 -2.1055949 -1.6922262 11
6.209929 -2.1394625 -1.5562752 14
6.1425295 -2.1162419 -1.3809495 1
7.3381476 -2.5281596 -1.4623313 1
9.3820457 -3.261667 -1.6319053 17
9.7632475 -3.3941915 -1.4526889 4
13.338693 -4.6371946 -1.6514307 27
16.597317 -5.7700548 -1.639357 8
24.781113 -8.6151505 -1.8345952 26
4.6943541 -1.6319915 -1.6793337 13
5.2639537 -1.8300127 -1.7389929 13
5.6547637 -1.9658778 -1.7166696 15
6.1075497 -2.1232889 -1.6927327 11
6.2333412 -2.1670201 -1.5636531 17
7.4651752 -2.5952671 -1.6799265 11
8.2611322 -2.8719814 -1.6478537 14
9.3250532 -3.2692416 -1.6234751 24
9.7431145 -3.4158087 -1.4510189 8
13.377122 -4.6898437 -1.6577028 20
24.939219 -8.7433643 -1.8479885 26
4.7115226 -1.6517982 -1.6870166 14
5.2573428 -1.8431556 -1.7383971 13
5.6332703 -1.9749508 -1.7117082 15
6.3011074 -2.2090859 -1.5820979 24
7.4952788 -2.6277466 -1.6882432 9
8.288826 -2.9059539 -1.6548896 19
9.2347412 -3.2701936 -1.6095326 25
13.858541 -4.9075665 -1.7192627 29
17.588722 -6.2284937 -1.7407951 19
24.958647 -8.8383207 -1.8514763 26
4.8170462 -1.7058055 -1.7267109 13
5.2461276 -1.8577513 -1.7366099 15
5.6197886 -1.9900715 -1.7095029 16
6.7399178 -2.3867302 -1.6941496 21
7.4556365 -2.6401794 -1.681174 11
8.2629805 -2.926075 -1.6515567 21
9.2943373 -3.3205359 -1.6215296 29
9.7767601 -3.4928885 -1.4590908 9
12.312709 -4.3988924 -1.5290079 12
17.539381 -6.2661967 -1.7376367 19
25.277691 -9.0308199 -1.8770071 20
4.7676563 -1.7033139 -1.7107052 14
5.1672044 -1.8460582 -1.7121841 20
5.6504178 -2.0186932 -1.7205284 13
5.5771823 -1.9925287 -1.5504054 10
6.7460551 -2.4101255 -1.6973774 21
6.2083974 -2.2180393 -1.4013249 2
8.2344179 -2.9418645 -1.6474835 23
9.1984653 -3.3189075 -1.6066145 34
12.282011 -4.4314847 -1.5269172 9
17.510242 -6.3178883 -1.7367078 19
25.159115 -9.0776854 -1.8703107 20
4.8050566 -1.7337173 -1.7260708 14
5.2008886 -1.8765379 -1.7252907 17
5.6440482 -2.0364347 -1.7205284 12
5.5927343 -2.0179203 -1.5564834 19
6.7402806 -2.4319675 -1.6978385 21
8.2824459 -2.9883978 -1.6589628 27
9.2355242 -3.3614557 -1.6147203 37
9.7781944 -3.5589714 -1.4624311 14
11.761855 -4.2809649 -1.4637312 5
17.507504 -6.3722095 -1.7381941 19
4.8233433 -1.7555532 -1.7343938 14
5.1884522 -1.8884422 -1.7229077 17
5.6329198 -2.050215 -1.7188746 13
6.7316346 -2.4501145 -1.6973774 21
6.0039411 -2.1852558 -1.3580793 5
8.4125872 -3.0619311 -1.6867357 19
9.0890064 -3.3369009 -1.5907266 31
9.6975689 -3.5603259 -1.4518539 14
12.713937 -4.6677427 -1.5838311 9
17.218584 -6.3215609 -1.7112554 33
21.32103 -7.8277164 -1.5882155 5
4.8202004 -1.7696688 -1.735034 14
5.2207952 -1.9167416 -1.7354183 16
5.6452203 -2.0725634 -1.7243874 12
5.7466569 -2.1098042 -1.6025751 14
6.7357278 -2.4729276 -1.7001442 18
5.9923062 -2.199991 -1.3568319 5
8.3394279 -3.0617037 -1.673775 27
9.2172651 -3.416887 -1.6150447 25
9.8293276 -3.6437817 -1.4732865 97
13.118294 -4.8630185 -1.6360989 13
17.439505 -6.4649129 -1.7352215 19
21.402966 -7.9341884 -1.5961677 16
4.8217235 -1.7874374 -1.7375951 14
5.2612925 -1.9503878 -1.7509079 13
5.6458917 -2.0929608 -1.7265925 12
5.8942041 -2.1850114 -1.6456279 27
6.7297502 -2.4947526 -1.7006053 21
8.1288958 -3.013423 -1.6334119 44
8.9833345 -3.3551576 -1.5754873 34
9.9558353 -3.7183738 -1.4936059 22
13.037519 -4.8693423 -1.6275038 13
21.37417 -7.9829721 -1.5954701 5
4.8049164 -1.7945732 -1.7331133 14
5.2636652 -1.9659097 -1.7532908 13
5.6389594 -2.1060772 -1.7260412 15
5.9359727 -2.2170079 -1.6587969 20
6.7218113 -2.5105083 -1.7001442 21
7.3544102 -2.7467754 -1.6686993 52
10.001554 -3.7712951 -1.5022346 21
15.357234 -5.7907667 -1.5312308 7
25.30665 -9.5424013 -1.8912375 6
4.8028011 -1.8109967 -1.7343938 13
5.2431717 -1.9770476 -1.7485249 13
5.6395111 -2.1264956 -1.7282463 15
5.9325991 -2.2370107 -1.6598099 24
6.6865764 -2.5213134 -1.6932274 21
8.0291824 -3.0275712 -1.6167482 22
9.1077862 -3.4670012 -1.6011024 25
10.071099 -3.8336992 -1.5144819 26
13.114984 -4.9923949 -1.3092191 9
4.7988582 -1.8267499 -1.735034 13
5.2476406 -1.9975849 -1.7520994 13
5.6525669 -2.1517255 -1.7343104 13
5.9309669 -2.2577024 -1.6613295 29
6.6677094 -2.5381532 -1.6904607 17
6.135807 -2.3356776 -1.3955034 1
8.1959677 -3.1199055 -1.6522975 19
9.1232424 -3.4984314 -1.6053175 24
10.037662 -3.8490777 -1.5108633 22
11.638691 -4.4630146 -1.4576913 2
17.375502 -6.6628728 -1.7361504 19
24.435162 -9.3699961 -1.8299913 6
4.762536 -1.8262593 -1.7235098 14
5.2480917 -2.0124524 -1.7538867 13
5.6634479 -2.1717262 -1.7392719 12
5.8603973 -2.2472491 -1.6430954 20
6.6596708 -2.5537415 -1.6899996 21
8.2727356 -3.1722932 -1.6693314 27
9.150857 -3.5420358 -1.6121265 24
12.654619 -4.898242 -1.5868509 16
17.386055 -6.7296457 -1.7393087 19
24.448399 -9.4632778 -1.8332001 13
4.7779794 -1.8494196 -1.7311927 14
5.238183 -2.0275512 -1.7526951 12
5.6548042 -2.1888134 -1.7387205 13
5.8569174 -2.2670455 -1.6441083 20
6.6552448 -2.5760555 -1.6909218 21
6.6809316 -2.5859981 -1.5227454 24
8.3232145 -3.221679 -1.6815515 19
8.9552441 -3.4951053 -1.5793782 49
9.3725843 -3.6579876 -1.4139988 21
17.320818 -6.7600713 -1.7346642 39
24.890242 -9.7143097 -1.8683573 13
73.171432 -28.557779 -1.8236258 62
4.7939773 -1.8710217 -1.7388754 13
5.2325006 -2.042171 -1.7526951 12
5.6522517 -2.2059941 -1.7398231 13
5.9046354 -2.304496 -1.6593035 29
6.6498384 -2.5953381 -1.6913829 21
6.5825634 -2.5690815 -1.5019542 12
8.3434801 -3.2563426 -1.6874763 17
9.0207434 -3.5497282 -1.5926721 55
9.3973503 -3.6979256 -1.4192874 17
12.774944 -5.0270338 -1.605435 13
24.88344 -9.7918148 -1.8698921 6
58.047623 -22.842161 -2.9090421 45
4.7887335 -1.8844014 -1.7388754 13
5.2356601 -2.0602703 -1.7556738 12
5.6532254 -2.2245853 -1.7420281 12
6.0908222 -2.3967826 -1.7134993 16
6.6316991 -2.6096218 -1.6886162 17
7.6403098 -3.0065174 -1.7452108 24
8.3343544 -3.279629 -1.6874763 17
9.1257334 -3.6223485 -1.6130993 22
9.5556917 -3.7930152 -1.4448953 73
12.663963 -5.0268059 -1.5933553 6
17.25013 -6.8472285 -1.7315059 19
26.013266 -10.325648 -1.9570876 21
58.026009 -23.032717 -2.9113712 45
4.7901654 -1.9013977 -1.7414364 13
5.2366223 -2.0786133 -1.7580569 11
5.6394525 -2.2385118 -1.7398231 13
6.1052632 -2.4234099 -1.7195773 16
6.6166916 -2.626415 -1.6867718 21
8.3099718 -3.298542 -1.6845139 19
8.8376741 -3.5401862 -1.5641389 19
9.501442 -3.806078 -1.4384933 32
17.330204 -6.9421153 -1.7417239 19
26.167757 -10.482253 -1.9711784 14
56.729351 -22.724585 -2.8498812 43
4.7771335 -1.913619 -1.7388754 13
5.2424722 -2.100024 -1.7622272 12
5.6270385 -2.2540731 -1.7381692 15
6.0150018 -2.4094832 -1.6962782 23
6.6029882 -2.6450181 -1.6853884 24
6.6320753 -2.6566699 -1.5185871 5
8.2904472 -3.3209786 -1.6826624 17
8.8021336 -3.5545058 -1.5595995 25
9.3585529 -3.7792008 -1.4184524 21
12.41472 -5.0133519 -1.5657115 12
24.218103 -9.7798319 -1.826364 6
4.7875829 -1.9333371 -1.7446376 13
5.238358 -2.1153705 -1.7628229 12
5.6207223 -2.269778 -1.7381692 15
5.9777508 -2.4139545 -1.6876677 24
6.5973806 -2.6641755 -1.6858494 21
7.6422706 -3.0861261 -1.7518641 9
6.5880995 -2.6604273 -1.3386497 7
8.8981905 -3.6222291 -1.5784054 43
9.4470186 -3.8456433 -1.433483 52
24.044716 -9.7879982 -1.8153425 6
56.982735 -23.196236 -2.8690736 44
71.470413 -29.093803 -1.7915486 60
72.602966 -29.554836 0 63
4.7891855 -1.9495566 -1.7471985 14
5.2306619 -2.1292706 -1.7622272 10
5.6214843 -2.2883644 -1.7403743 15
5.9064736 -2.4043767 -1.6694336 20
6.5394459 -2.6620436 -1.6729382 23
7.5738287 -3.0831149 -1.7381419 14
6.6407166 -2.7032683 -1.3508698 3
8.8265238 -3.6254215 -1.5677054 25
9.2919931 -3.8166091 -1.411772 13
12.329627 -5.064292 -1.5587425 12
23.681654 -9.7270432 -1.7902302 12
4.7900476 -1.9674723 -1.7497593 13
5.2257128 -2.1464183 -1.7628229 11
5.6107111 -2.304553 -1.7392719 12
5.9418445 -2.4405632 -1.6815896 27
6.5526524 -2.6914475 -1.6784716 24
8.2193365 -3.3760242 -1.6741455 8
8.8753576 -3.6726642 -1.5780811 28
9.9371243 -4.1120281 -1.51142 17
13.81778 -5.7178617 -1.748765 18
16.867609 -6.9798951 -1.703081 13
25.940235 -10.73419 -1.9630867 7
4.7918835 -1.9829037 -1.7523204 13
5.1036425 -2.1119111 -1.7235034 25
5.6099877 -2.3214388 -1.7409257 13
6.0981226 -2.5234315 -1.7276814 16
6.5276012 -2.7011518 -1.6738604 20
6.4099007 -2.6524467 -1.4745098 5
8.2086525 -3.3967786 -1.673775 10
8.8771696 -3.7043016 -1.5803509 19
9.950469 -4.1521721 -1.5153168 27
17.190487 -7.1733165 -1.7378224 29
24.588095 -10.260221 -1.8630559 6
55.856266 -23.30793 -2.8224902 43
71.601311 -29.878086 -1.8012971 61
4.8034654 -2.0044096 -1.7587228 13
5.2065954 -2.1726294 -1.7604399 12
5.6066232 -2.3395545 -1.7420281 15
6.0977507 -2.5444944 -1.7297074 14
6.5806231 -2.7459893 -1.6895385 21
7.5267754 -3.1408036 -1.7335678 17
8.1894693 -3.417335 -1.6719235 10
8.9043417 -3.7466984 -1.58716 24
9.8541317 -4.1463437 -1.5025129 16
17.17647 -7.2273793 -1.7385657 19
24.535475 -10.323843 -1.8613818 6
71.309616 -30.005095 -1.7961906 61
4.7957501 -2.0179179 -1.7580824 13
5.2265229 -2.1991751 -1.769376 11
5.6014295 -2.3569252 -1.7425795 16
6.091958 -2.5633259 -1.7302139 14
6.6262603 -2.7881453 -1.703372 18
8.1629887 -3.4347579 -1.6685908 12
8.7975464 -3.7307129 -1.5699751 24
12.308918 -5.2197556 -1.247353 11
18.704105 -7.9317174 -1.4206604 4
70.827942 -30.035501 -1.7861636 60
4.7813745 -2.0276036 -1.7548814 13
5.2203612 -2.2137616 -1.769376 10
5.5930552 -2.3718071 -1.7420281 12
6.0883384 -2.5818384 -1.7312269 14
6.6005316 -2.7990406 -1.6987609 28
7.5067601 -3.1833384 -1.733152 9
8.117177 -3.4421935 -1.6611847 17
8.6793747 -3.7110226 -1.5508449 28
8.7611246 -3.745976 -1.3391237 6
12.263193 -5.2433486 -1.5596716 12
12.313518 -5.2648659 -1.2493967 11
25.557949 -10.92776 -1.9436945 28
70.764252 -30.256525 -1.7868135 60
4.7648845 -2.0373118 -1.7510399 14
5.2172809 -2.2307422 -1.7705675 10
5.589529 -2.3899035 -1.7431308 11
6.0788722 -2.5991309 -1.7307203 14
6.5492516 -2.8002501 -1.687694 31
7.4792938 -3.1979063 -1.7289937 13
8.1213865 -3.4724445 -1.6641473 17
8.8085375 -3.7953782 -1.5758115 24
8.6505909 -3.7273228 -1.3238146 6
11.971207 -5.158093 -1.5243618 12
17.011618 -7.3298798 -1.7281617 4
25.46137 -10.970667 -1.9386719 21
18.639336 -8.0312223 -0.94648212 5
4.7661366 -2.0536089 -1.7536008 13
5.2233047 -2.2505913 -1.7747378 11
5.5969582 -2.4115891 -1.747541 12
6.0662599 -2.6137993 -1.729201 14
6.4305959 -2.7707827 -1.6591047 40
7.4972844 -3.230392 -1.7352312 13
7.997942 -3.4461129 -1.640818 19
8.6644411 -3.7656078 -1.5521419 25
8.8168468 -3.8318441 -1.3510926 6
11.874781 -5.1608377 -1.5141406 3
16.944675 -7.3642383 -1.723703 4
25.293205 -10.99255 -1.9284875 7
4.7735639 -2.074614 -1.7587228 14
5.212707 -2.2654676 -1.7735463 11
5.5805383 -2.425329 -1.7447846 12
6.0615673 -2.6343865 -1.7302139 11
6.2826414 -2.7304664 -1.6231374 21
7.472744 -3.2476907 -1.7319044 13
8.0880175 -3.5150917 -1.6615549 17
8.6828165 -3.8024561 -1.5573299 31
8.8623514 -3.8810799 -1.3597213 9
11.811193 -5.1724625 -1.5078684 9
18.129776 -7.9395528 -1.846506 16
23.562775 -10.31882 -1.7987404 19
54.705303 -23.957033 -2.785037 41
4.7712226 -2.0894563 -1.7600031 13
5.2046108 -2.2792494 -1.7729505 12
5.5526114 -2.431649 -1.7381692 10
6.0506425 -2.6497512 -1.729201 14
6.528131 -2.8588572 -1.6886162 28
7.4690228 -3.2709007 -1.733152 13
8.0925741 -3.543972 -1.6645175 19
8.5938625 -3.7939289 -1.5433874 19
8.7457113 -3.8609655 -1.3435771 9
8.7573462 -3.866102 -1.1194605 10
18.301065 -8.0793638 -1.866385 22
25.410168 -11.217815 -1.9422992 7
4.7563357 -2.0997777 -1.7568021 14
5.1995726 -2.2954531 -1.7735463 12
5.5893412 -2.4675241 -1.7519512 10
6.0321336 -2.6630034 -1.7261618 14
6.5890532 -2.9088664 -1.7065998 29
7.4628639 -3.2946272 -1.7339836 16
8.159337 -3.6020992 -1.6804405 19
8.5501127 -3.8049676 -1.537551 18
8.7595491 -3.8981707 -1.347474 9
11.782106 -5.243268 -1.5081007 9
8.7619047 -3.8992193 -0.89473522 7
8.7766953 -3.9058013 -0.67175484 4
4.7241182 -2.1023252 -1.7471985 14
5.1962271 -2.3124228 -1.7747378 12
5.5960464 -2.4903502 -1.7563614 11
6.022438 -2.6801028 -1.7256553 16
6.3385844 -2.8207943 -1.6438876 29
7.4673543 -3.3231189 -1.7373102 16
8.2258263 -3.6606538 -1.6963637 17
8.5052385 -3.813488 -1.5313904 19
8.6040535 -3.8577938 -1.3252064 6
11.810921 -5.2956543 -1.5136759 9
11.89632 -5.3339448 -1.2163271 5
12.734465 -5.7097435 -0.97589308 2
4.6871085 -2.1015556 -1.7356744 14
5.1880069 -2.3261433 -1.7741421 12
5.5118833 -2.4713593 -1.7321053 13
6.0237579 -2.7008684 -1.7281879 14
6.407042 -2.8727212 -1.6637158 23
7.4526901 -3.3415575 -1.7360628 14
8.1814976 -3.6683323 -1.6893278 19
8.4603834 -3.8217871 -1.5252298 18
8.6600304 -3.911973 -1.3355052 6
10.804029 -4.880476 -1.3863748 2
18.755774 -8.472497 -1.9200764 18
25.249666 -11.405966 -1.9374163 7
70.290283 -31.752048 -1.790713 60
4.6760416 -2.1122961 -1.7337536 14
5.1849713 -2.3421936 -1.7753336 13
5.2684331 -2.3798954 -1.6576831 25
6.026772 -2.7224579 -1.7312269 14
6.6118217 -2.9867411 -1.71905 18
7.4379821 -3.3599403 -1.7348154 14
8.2106266 -3.7089651 -1.6974745 17
8.5341034 -3.8838198 -1.5404693 22
8.625638 -3.9254763 -1.3318866 6
11.748616 -5.3467255 -1.5094945 12
14.121078 -6.4264183 -1.4474423 7
24.689281 -11.235945 -1.896818 6
4.6615014 -2.1214216 -1.7305523 13
5.1801481 -2.3574545 -1.7759293 13
5.2810149 -2.4033585 -1.6637472 46
6.0032969 -2.7320645 -1.7266684 19
6.585742 -2.9971321 -1.7144388 21
7.3822746 -3.3596294 -1.724004 14
8.1716156 -3.7188535 -1.6915497 19
8.4651394 -3.8827944 -1.5300936 19
11.7327 -5.3815603 -1.5094945 9
17.430592 -7.9950724 -1.7890987 20
24.519825 -11.246765 -1.8863546 6
52.550827 -24.104038 -2.6961558 37
4.651742 -2.1336634 -1.729272 13
5.1696596 -2.371222 -1.7747378 15
5.3437586 -2.4510777 -1.6857982 35
5.9793358 -2.7426047 -1.7221098 19
6.5538244 -3.0061114 -1.7084444 21
7.3438225 -3.368468 -1.7173507 14
8.1873417 -3.7553737 -1.6971042 17
8.4564819 -3.9110258 -1.530742 21
8.5511656 -3.9548159 -1.3240931 6
11.690495 -5.4067197 -1.5062423 12
28.115108 -13.002914 -2.1660781 10
4.6381373 -2.1450851 -1.7267109 14
5.1552534 -2.3842454 -1.7723548 16
5.322073 -2.4613976 -1.681388 32
5.4719625 -2.5307198 -1.578263 46
6.5160871 -3.0136154 -1.7010664 14
7.3332043 -3.3915226 -1.7173507 13
8.0506325 -3.7233253 -1.6711829 29
8.3549709 -3.890662 -1.5142057 25
8.5946436 -4.0022707 -1.3324434 6
11.643885 -5.4222116 -1.5020609 6
16.46179 -7.6657667 -1.6941633 4
27.871166 -12.978775 -2.1498945 28
67.253578 -31.317997 -1.7224268 57
4.5912819 -2.1380236 -1.7113453 14
5.1420708 -2.3945098 -1.7699718 16
5.3400102 -2.4866843 -1.6891057 41
5.2864151 -2.4617267 -1.5265998 8
7.3065667 -3.4024513 -1.7131926 13
8.1780491 -3.808275 -1.6996963 14
8.3976765 -3.939122 -1.5239329 27
8.2714405 -3.8799081 -1.2840111 9
16.543083 -7.7599111 -1.7047529 4
8.2926426 -3.8898537 -0.64050394 4
4.5149622 -2.117846 -1.6850959 14
5.1353641 -2.4088597 -1.7699718 15
5.3226018 -2.4966879 -1.6857982 95
5.8733344 -2.7550218 -1.6983042 21
5.2980638 -2.4851778 -1.3865836 8
7.3430858 -3.444442 -1.724004 8
8.1656027 -3.8302627 -1.699326 17
8.4013157 -3.973078 -1.5268511 31
11.369074 -5.3765645 -1.4707003 2
25.622108 -12.116986 -1.9819208 14
66.113991 -31.266058 -1.6979628 56
4.4928703 -2.1247294 -1.6793337 14
5.1260452 -2.424165 -1.769376 17
5.4485564 -2.5766842 -1.7282463 18
5.9083772 -2.7941389 -1.7109668 16
5.4028258 -2.5550578 -1.4160951 8
7.3587561 -3.4800396 -1.7302413 8
8.1588593 -3.8584175 -1.7004368 17
11.603298 -5.5270333 -1.5029901 12
14.824775 -7.0615287 -1.531974 7
25.923201 -12.348074 -2.0078704 7
4.4800768 -2.1340084 -1.6767728 16
5.1313214 -2.4442174 -1.7735463 15
5.2139664 -2.4835839 -1.6560293 30
5.8778439 -2.7998106 -1.7043823 14
5.0829277 -2.4211659 -1.334016 5
7.3437099 -3.4980509 -1.7289937 11
8.1516027 -3.8828769 -1.7011776 17
8.4216995 -4.0404258 -1.5346329 33
9.6854401 -4.6467223 -1.5097499 17
11.179469 -5.363503 -1.4500253 2
14.756523 -7.0796437 -1.5269579 3
25.924591 -12.437677 -2.0106606 7
65.606628 -31.475677 -1.6894211 56
4.4826412 -2.1506085 -1.6799738 16
5.1193113 -2.4560597 -1.7717592 17
5.248611 -2.5180929 -1.6692599 46
5.0239539 -2.4103107 -1.4587283 4
7.3303857 -3.5168529 -1.7281621 8
8.119463 -3.8954234 -1.696734 14
8.3787613 -4.0522556 -1.5291208 22
10.456185 -5.0569687 -1.3582664 2
17.498552 -8.4628983 -1.8134365 5
27.284554 -13.195743 -2.1193411 25
51.152027 -24.738869 -2.6497588 35
65.280624 -31.571943 -1.6835719 56
4.4724522 -2.1630309 -1.6786935 14
5.1132889 -2.4729614 -1.7723548 17
5.3081732 -2.567214 -1.6907597 43
5.0302916 -2.432821 -1.4627804 6
6.4174938 -3.1037195 -1.6890773 17
7.3281074 -3.5441232 -1.7302413 14
8.0717983 -3.9037976 -1.6893278 19
8.2698288 -4.0281062 -1.5112876 22
10.261302 -4.9981222 -1.6041094 6
11.629631 -5.6646142 -1.5127467 12
15.283559 -7.444386 -1.586037 8
26.926533 -13.115499 -2.0943685 23
65.364769 -31.838173 -1.6880285 56
4.4612842 -2.1730227 -1.6767728 22
5.1149454 -2.4914112 -1.7753336 15
5.4185143 -2.6392748 -1.7282463 32
5.025218 -2.4477062 -1.4632869 2
6.3108234 -3.073905 -1.6632546 13
7.2970767 -3.5542936 -1.7252513 14
8.0573311 -3.9246018 -1.6885873 17
8.2638626 -4.053791 -1.5122602 25
8.216691 -4.0306511 -1.286238 6
12.097081 -5.9341545 -1.5757005 9
15.943871 -7.8211761 -1.6568207 4
27.310736 -13.397127 -2.1271539 26
4.6457224 -2.2789328 -1.748479 19
5.1148248 -2.5090485 -1.7777166 12
5.5026031 -2.6992707 -1.7574639 16
5.0722117 -2.4881449 -1.4789884 12
6.3266764 -3.1035154 -1.6697104 13
7.2642894 -3.5634561 -1.7198457 14
8.0498695 -3.948818 -1.6893278 17
8.4163399 -4.1596141 -1.5424148 49
8.2046957 -4.0550127 -1.286238 6
16.068769 -7.94168 -1.6722407 9
26.963228 -13.326056 -2.1031578 16
4.6304469 -2.2885091 -1.7452778 27
5.1022229 -2.5216753 -1.7759293 13
5.5049109 -2.7206962 -1.7607716 16
7.2379012 -3.5771933 -1.7161033 16
8.0768805 -3.9918425 -1.6974745 17
8.3113728 -4.140276 -1.5255542 21
11.063111 -5.5110431 -1.4453794 2
18.163061 -9.0478535 -1.8931378 23
27.148026 -13.523677 -2.1208758 17
65.821342 -32.788628 0 63
4.5723548 -2.2776997 -1.7260708 30
5.0942755 -2.5376921 -1.7759293 15
5.5221486 -2.7508354 -1.7690406 15
5.6492004 -2.8141258 -1.6522124 18
4.9575887 -2.4696023 -1.3123435 1
7.2283778 -3.6007864 -1.7165191 14
8.0361519 -4.0031757 -1.6915497 19
8.3015423 -4.1643538 -1.5258784 28
13.252953 -6.64816 -1.7338977 10
16.532207 -8.2931528 -1.7255607 9
27.245689 -13.667423 -2.1314788 18
64.573372 -32.392334 -1.6772585 55
4.5033131 -2.2590246 -1.7023821 17
5.0854626 -2.5510519 -1.7753336 15
5.5075722 -2.7627971 -1.7668356 15
5.7329788 -2.8758695 -1.679057 22
7.2043061 -3.6139405 -1.7131926 14
8.0073748 -4.0167885 -1.6878465 19
8.3296623 -4.2094398 -1.5333359 27
9.4692621 -4.7853432 -1.4911008 100
10.933676 -5.5253921 -1.4326028 8
18.505211 -9.3517084 -1.9343818 30
27.18009 -13.735605 -2.1295257 26
5.0778713 -2.5661297 -1.7753336 15
5.492487 -2.7756581 -1.7646304 16
5.7140598 -2.8876312 -1.6760181 22
6.3380322 -3.2029591 -1.6826217 28
7.188313 -3.632653 -1.7119449 14
7.9813881 -4.0334377 -1.6848842 17
8.4040613 -4.2765422 -1.5492238 30
18.207481 -9.2651701 -1.905957 23
22.351299 -11.373818 -1.7536777 6
64.107742 -32.622253 -1.6700169 55
4.2842073 -2.1800878 -1.6242737 22
5.0349522 -2.5621164 -1.7628229 16
5.4812875 -2.7892413 -1.7635279 15
5.6956272 -2.8983116 -1.6729791 15
5.014338 -2.5516267 -1.3330938 3
7.1607051 -3.6438401 -1.7077868 14
7.9508247 -4.0459051 -1.6808108 17
8.2761641 -4.2405968 -1.5278239 30
8.3566103 -4.281816 -1.3196394 6
13.17263 -6.7494812 -1.7308778 10
29.109394 -14.915268 -2.2871754 13
64.866661 -33.236816 0 63
4.2460632 -2.1756265 -1.6121092 79
5.0464687 -2.5857437 -1.769376 13
5.4700556 -2.8027837 -1.7624254 15
5.6961212 -2.918617 -1.6755115 15
7.1209035 -3.6486566 -1.7007178 16
7.9289999 -4.0627146 -1.6785889 17
8.1277761 -4.1968546 -1.5028573 43
8.3448772 -4.3089566 -1.3199178 6
16.7579 -8.653101 -1.7595593 5
29.076574 -15.013967 -2.2882912 13
