# .PCD v0.7 - Point Cloud Data file format
VERSION 0.7
FIELDS x y z intensity
SIZE 4 4 4 4
TYPE F F F F
COUNT 1 1 1 1
WIDTH 1388
HEIGHT 1
VIEWPOINT 0 0 0 1 0 0 0
POINTS 1388
DATA ascii
-5.1440258 -4.0218477 -0.60918534 10
-4.5486541 -3.5563571 -0.40375045 4
-4.5280552 -3.540252 -0.26804104 4
-4.6514678 -3.6367419 -0.13708296 2
-3.9746542 -3.1075764 -1.0724087 4
-4.0690613 -3.1813884 -0.97315943 3
-4.0922213 -3.1799767 -0.85145706 3
-4.5316892 -3.5214779 -0.53542918 10
-4.6111741 -3.5832438 -0.40835437 4
-4.5842881 -3.5623512 -0.27074289 4
-3.9124181 -3.0402555 -1.1740078 1
-3.9684098 -3.0837655 -1.0682503 4
-4.1095223 -3.1934209 -0.98056561 3
-4.4015298 -3.399436 -0.91371131 4
-3.9280782 -3.0337746 -0.69753563 2
-4.7012973 -3.6309552 -0.55419332 7
-4.6375761 -3.5817416 -0.40974951 6
-4.6027436 -3.5548396 -0.27120873 4
-4.6777148 -3.6127417 -0.13722223 2
-3.9775424 -3.0719774 -1.0682503 4
-4.7856512 -3.6748145 -0.56292516 7
-4.5383735 -3.4849343 -0.40012312 3
-4.5365939 -3.483568 -0.26673672 4
-4.5910482 -3.5253823 -0.13439052 4
-4.2804098 -3.265523 -0.88452959 4
-4.6270247 -3.5299554 -0.40695927 4
-4.5284553 -3.454757 -0.26561871 4
-4.3351111 -3.2881448 -0.89393264 14
-4.4043789 -3.3406839 -0.51573604 10
-4.5955338 -3.4856732 -0.40333191 4
-4.5046577 -3.4167445 -0.26366222 4
-4.618259 -3.5029101 -0.1345762 5
-12.516623 -9.4937525 1.4656491 2
-4.5631461 -3.4410756 -0.53319973 13
-4.520823 -3.4091599 -0.39593774 6
-5.067039 -3.8210621 -0.14734215 4
-4.4586043 -3.3415346 -0.51982331 13
-4.5261292 -3.3921416 -0.3955192 4
-4.6079583 -3.4534693 -0.13369419 15
-8.3066835 -6.2255068 0.72588587 2
-4.3689141 -3.2553034 -0.50830472 52
-4.5675802 -3.4033306 -0.39830944 4
-4.9534421 -3.6908383 -0.28807196 6
-5.0136051 -3.7356663 -0.14516032 3
-8.2904387 -6.1772542 0.72295606 2
-4.416275 -3.2714522 -0.77241075 3
-4.5077057 -3.3391814 -0.65601915 9
-4.5828061 -3.394814 -0.53208506 10
-4.5530195 -3.3727486 -0.39621678 5
-4.677978 -3.4653144 -0.27148822 7
-5.0609713 -3.7490249 -0.14622802 4
-8.3236895 -6.1659546 0.72435123 6
-4.0612421 -2.988739 -0.70866942 4
-4.5228796 -3.3284662 -0.52391058 18
-5.0729799 -3.7332945 -0.44044235 3
-4.1047482 -3.0207558 -0.23766866 12
-4.1338677 -3.0421855 -0.11916423 4
-8.3237362 -6.1255832 0.72267705 4
-3.9574285 -2.9123406 -0.92576051 3
-4.101881 -3.0010238 -0.2370165 5
-6.3946776 -4.6784825 0.36949977 1
-10.892969 -7.9695282 0.9438051 6
-4.0765815 -2.9825139 -0.95168185 5
-4.0682592 -2.9590182 -0.8264904 5
-4.4467468 -3.2343085 -0.38449767 8
-4.1021671 -2.983681 -0.23655066 5
-5.227705 -3.8023326 -0.15008101 4
-8.3755951 -6.0919271 0.482977 2
-10.648959 -7.7454414 0.92078549 9
-4.3573704 -3.1507347 -0.75571001 6
-4.9585695 -3.5854509 -0.42788622 18
-4.730536 -3.4205639 -0.27223358 7
-10.212258 -7.3842974 0.58769655 6
-10.531505 -7.6151381 0.90878737 8
-41.791332 -30.218548 4.8114309 25
-4.0764914 -2.9292562 -0.5870257 7
-4.104682 -2.9495132 -0.23571217 4
-4.8517041 -3.4863031 -0.13870773 4
-8.3342896 -5.9887943 0.47859815 3
-10.571876 -7.596663 0.91032195 8
-12.330728 -8.8605261 1.4166021 2
-4.0761986 -2.9107451 -0.70393759 2
-4.1378031 -2.954736 -0.23710966 9
-5.351809 -3.8216374 -0.15268062 6
-8.3897619 -5.9909887 0.23934974 3
-10.197368 -7.2817698 0.58434254 6
-10.70153 -7.6417832 0.9195298 12
-12.475266 -8.9083786 1.4301643 7
-4.2140322 -2.9903319 -0.72620535 4
-4.4776945 -3.1774304 -0.1274737 1
-8.6260033 -6.1211243 0.24557024 3
-8.3175421 -5.902236 0.47561681 3
-10.867339 -7.7116051 0.93180698 12
-12.547113 -8.903595 1.4353663 2
-4.2316451 -2.9850976 -0.8508085 9
-4.5090084 -3.1807556 -0.25732687 3
-5.791923 -4.0857525 0 1
-7.8032651 -5.5045986 0.22170952 2
-9.8995752 -6.9833827 0.56496382 6
-10.936111 -7.7145786 0.93585283 18
-44.83194 -31.625458 6.4159327 31
-4.1693783 -2.9226847 -0.83654195 7
-4.140367 -2.902348 -0.71061796 7
-4.5331492 -3.1776838 -0.25816539 16
-4.890502 -3.4281838 -0.13866131 5
-5.2209983 -3.6598577 0 2
-5.2015815 -3.6462467 0.1474814 5
-5.2480488 -3.6788199 0.2988793 8
-10.651815 -7.4667964 0.90962446 11
-4.152122 -2.8922527 -0.83135408 14
-4.4999356 -3.1345301 -0.25574303 2
-4.9990921 -3.4822285 -0.14144659 18
-5.1547022 -3.5906224 0 5
-5.2140183 -3.6319404 0.14752783 5
-5.2556624 -3.6609485 0.29869294 8
-9.9748802 -6.9482241 0.85005242 2
-4.1520691 -2.8750284 -0.82973284 9
-4.9709883 -3.4420745 -0.14037889 11
-5.1762195 -3.5841837 0 5
-8.4326124 -5.839016 0.47831869 5
-44.559093 -30.854172 5.0564799 31
-4.0971727 -2.8190689 -0.81708747 7
-5.0213366 -3.454942 -0.42621204 5
-5.1910748 -3.5717309 -0.29384828 9
-4.9251733 -3.3887765 -0.13880058 14
-5.2002583 -3.5780494 0.14655297 14
-5.1482825 -3.5422873 0.29142594 4
-11.098219 -7.6361547 1.256828 5
-4.7836814 -3.2705522 -0.54063112 7
-4.9953322 -3.4152555 -0.42314279 21
-4.9443707 -3.3804138 -0.27931425 16
-5.1035647 -3.4892528 -0.14353557 48
-5.4896264 -3.7531991 0 18
-5.1844425 -3.5445483 0.14581022 6
-5.1571207 -3.5258687 0.29133278 4
-9.832552 -6.7224116 0.8328923 4
-11.106032 -7.5930762 1.2551559 5
-4.2103214 -2.8602569 -0.71534979 4
-4.9575844 -3.3679054 -0.41909689 20
-4.9890833 -3.3893042 -0.28127074 15
-5.2164378 -3.543756 -0.1464137 40
-5.2492762 -3.5660646 0 70
-5.1750898 -3.5156667 0.14525317 6
-11.372299 -7.7257037 1.2826519 6
-49.934086 -33.922424 8.4839926 43
-4.204535 -2.8402679 -0.83362377 31
-5.0345411 -3.4009576 -0.56682664 22
-5.2472358 -3.5446382 -0.14701718 13
-5.1342964 -3.4683449 0 13
-5.6763597 -3.8345218 0.15904038 16
-8.0423937 -5.432837 0.45260462 6
-10.002205 -6.7567377 0.84405333 30
-11.19282 -7.5610275 1.2601721 5
-4.5018721 -3.0205731 -0.89069021 18
-5.1097198 -3.4284141 -0.28695393 6
-5.2400818 -3.5158818 -0.14650655 19
-5.3444638 -3.5859177 0 57
-5.167026 -3.4668643 0.144464 6
-8.0312185 -5.3886209 0.45102078 12
-8.760932 -5.8782291 0.73774445 4
-11.317389 -7.5935073 1.2715049 5
-11.570027 -7.7630177 1.6293621 2
-4.1879368 -2.8099351 -0.95020068 11
-4.9967771 -3.3349564 -0.28015277 20
-5.1621776 -3.4453483 -0.14409262 13
-5.6526442 -3.7726963 0 8
-8.1839466 -5.462142 0.45884681 8
-11.415414 -7.6188927 1.2804226 5
-4.1081476 -2.7418661 -0.93057448 17
-4.1518483 -2.7522194 -0.81838447 10
-5.0888233 -3.3733311 -0.28471795 14
-5.3679619 -3.5583696 -0.14952396 23
-5.809598 -3.8511257 0.16182567 4
-8.4941387 -5.6306815 0.47524416 5
-9.9377289 -6.5876231 0.83372939 7
-11.396137 -7.554388 1.2755921 5
-4.1232939 -2.7332911 -0.93205571 5
-5.2288132 -3.4425328 -0.145346 10
-5.6444974 -3.7162099 0 6
-5.6413069 -3.7141092 0.15681215 3
-8.3883057 -5.5226712 0.46834984 18
-9.9250479 -6.5344276 0.83093911 9
-11.391539 -7.4999323 1.2724339 1
-49.417782 -32.535553 8.3153152 41
-5.6052027 -3.6707368 -0.15555875 18
-4.9207234 -3.2224848 0 4
-9.9660206 -6.5265508 0.83303177 9
-11.254902 -7.3706136 1.2551559 5
-4.9645905 -3.2289739 -0.55252129 42
-4.921113 -3.200696 -0.1362938 11
-4.9861493 -3.2429957 0 10
-5.5882125 -3.634578 0.15476958 26
-6.5215163 -4.2415996 0.36279178 4
-9.9965086 -6.5017381 0.83386886 7
-50.126823 -32.602528 6.9927368 41
-4.9384284 -3.1923685 -0.13652591 14
-4.926322 -3.1845427 0 10
-5.1936612 -3.3573599 0.14358199 11
-5.3957901 -3.4880228 0.29962462 8
-11.527553 -7.4518037 1.2806083 1
-50.337791 -32.540066 7.0094628 41
-5.1390934 -3.3017735 -0.14181796 10
-5.2955375 -3.4022861 0.14613518 42
-5.4055095 -3.4729412 0.29962462 11
-11.553345 -7.4228125 1.2811657 1
-5.1480327 -3.2859776 -0.28481111 14
-5.1960588 -3.3166325 -0.14311777 15
-5.2210608 -3.3325913 0 21
-5.2921262 -3.3779521 0.1457638 17
-5.5303035 -3.5299804 0.30595997 9
-50.608097 -32.303036 7.0210776 41
-5.2224498 -3.3104341 -0.28835142 9
-5.2604923 -3.3345487 -0.14460327 12
-5.2483959 -3.3268812 0 5
-5.3820829 -3.4116232 0.14794561 59
-7.2135611 -4.5725703 0.39828834 4
-8.8922815 -5.6366873 0.73620987 9
-50.499599 -32.010956 6.9920402 41
-51.589787 -32.702007 11.508314 61
-5.3426509 -3.3670526 -0.29450047 10
-5.2793531 -3.3271613 -0.14488178 13
-5.2553959 -3.312063 0 8
-5.4975643 -3.4646826 0.15087019 17
-5.62322 -3.5438733 0.30996615 4
-8.9103851 -5.6155148 0.73648888 9
-4.7311654 -2.9621043 -0.26030821 6
-5.3279214 -3.3357234 0 58
-5.5942512 -3.5024679 0.15323767 15
-5.6404839 -3.5314136 0.31033882 7
-8.007081 -5.0131006 0.66059381 2
-9.8451777 -6.1639028 1.0836774 2
-51.899899 -32.493668 11.536827 61
-4.7292414 -2.9425483 -0.2597492 10
-4.7551751 -2.9586842 -0.13002688 13
-5.27948 -3.2849083 0 15
-5.5836382 -3.4741566 0.15268062 11
-5.6401458 -3.5093157 0.30977979 6
-8.0159683 -4.9875598 0.66017526 6
-9.8741875 -6.1437497 1.0849779 1
-4.7242484 -2.9211729 -0.38840404 9
-4.7595301 -2.9429886 -0.26096037 10
-5.2940102 -3.2734771 -0.14451042 11
-5.3073444 -3.2817221 0 15
-5.5984201 -3.4617047 0.15281989 11
-5.6312327 -3.4819939 0.30875498 7
-8.0128956 -4.9546618 0.6587801 6
-10.109796 -6.2512507 1.1089441 5
-4.8245664 -2.9622931 -0.52818358 23
-5.345161 -3.2819393 -0.14562453 12
-5.3721671 -3.298521 0 78
-5.6348257 -3.4597938 0.1535162 11
-5.631928 -3.4580147 0.30819598 7
-9.8510513 -6.0485644 0.80833799 14
-10.058109 -6.1756988 1.1011411 5
-4.6662297 -2.8471613 -0.50997674 35
-5.3038874 -3.2362363 -0.28974894 18
-5.6852541 -3.4689322 0 16
-5.6871362 -3.4700806 0.15467675 9
-10.010966 -6.1083226 0.82005709 14
-10.073616 -6.1465487 1.1009552 3
-4.5856175 -2.780431 -0.50031602 41
-5.800951 -3.517333 0 13
-5.6933851 -3.4521117 0.1545839 9
-5.5486541 -3.3643558 0.30260596 14
-10.005808 -6.0668945 0.81824344 14
-10.111176 -6.1307831 1.1031847 5
-10.463443 -6.3443756 1.4309767 6
-53.405865 -32.381969 8.777648 45
-53.649284 -32.529564 10.307948 46
-4.3444886 -2.6176622 -0.71284467 6
-5.822885 -3.5084329 -0.15783341 7
-5.8107495 -3.501121 0 15
-5.8417239 -3.519784 0.15834406 18
-5.5614491 -3.3509114 0.30279231 22
-10.096192 -6.0832067 0.82424253 11
-10.360227 -6.2422938 1.1284513 8
-10.496429 -6.3243599 1.4330673 1
-4.2831244 -2.5623825 -0.8200056 11
-4.3730865 -2.6162021 -0.71618485 13
-5.794414 -3.4665124 -0.15676571 15
-5.6003165 -3.3503935 0 12
-5.6897478 -3.4038959 0.153934 33
-5.8411169 -3.4944525 0.3174195 7
-9.9851313 -5.9736123 0.81363952 11
-10.933466 -6.5409541 1.1886452 14
-53.62257 -32.079742 8.7818232 45
-4.2716026 -2.5393181 -0.81643897 12
-4.6338816 -2.7546802 -0.37696397 5
-5.668294 -3.3696022 -0.15309842 9
-5.6371574 -3.3510926 0 15
-5.4603305 -3.2459753 0.1474814 22
-8.9196739 -5.3024335 0.48390868 10
-10.193852 -6.0598884 0.82926494 9
-10.251589 -6.0942106 1.1126597 4
-53.541698 -31.828665 8.7539883 45
-5.2416162 -3.0949454 -0.42565399 23
-5.5164247 -3.2572079 -0.14873479 20
-5.550633 -3.2774062 0 18
-5.5353637 -3.2683907 0.14924543 7
-8.7203274 -5.1489725 0.47226283 21
-6.5249615 -3.852705 0.52987015 7
-10.20961 -6.0283294 1.1061573 1
-51.784828 -30.576681 7.0326929 42
-54.53582 -32.201023 10.40522 46
-4.7339911 -2.7763047 -0.25592938 4
-5.7330337 -3.362205 -0.15430537 11
-5.4826989 -3.2153931 0 38
-5.5967793 -3.2822969 0.15063807 7
-5.6163368 -3.2937665 0.3036308 8
-10.284707 -6.0315871 0.83372939 9
-11.936608 -7.0003643 1.2910123 6
-51.990131 -30.490223 7.0482569 42
-54.349792 -31.874075 8.8550282 46
-4.5899634 -2.6757145 -0.49567142 5
-4.6969137 -2.738061 -0.38017279 8
-5.2365966 -3.0526683 -0.28266826 31
-4.465281 -2.6030307 -0.11999982 4
-5.3615093 -3.1254861 0 11
-5.6278086 -3.280725 0.15124156 5
-5.6128583 -3.2720098 0.30297863 9
-8.6992016 -5.0711899 0.70412189 6
-11.111909 -6.4776754 1.1999781 4
-52.241386 -30.454062 7.0714874 42
-4.3591008 -2.5228179 -0.70783448 6
-4.3652687 -2.5263875 -0.58981323 17
-4.6709566 -2.7033036 -0.37738252 9
-5.2824726 -3.0572169 -0.28462476 29
-5.4716997 -3.1667316 0 32
-5.6138601 -3.2490065 0.15059166 7
-5.6127353 -3.2483554 0.30241963 7
-10.602468 -6.1361494 0.85660952 17
-11.142546 -6.4487185 1.2010928 4
-57.63509 -33.356155 9.3588352 50
-4.4291339 -2.5468659 -0.59747922 18
-4.5677814 -2.6265917 -0.49158418 24
-4.38446 -2.5211771 -0.35366532 2
-4.4841156 -2.5784814 -0.12009266 6
-5.4354424 -3.125519 0 57
-5.5969105 -3.2183673 0.14989533 7
-5.5732908 -3.2047853 0.29981098 9
-10.894562 -6.2646532 0.87879205 8
-12.707272 -7.3070078 1.3675553 9
-57.698822 -33.178307 9.3541031 50
-4.3681073 -2.4935462 -0.58818716 24
-4.6451869 -2.6517181 -0.49901551 13
-4.3888936 -2.5054121 -0.35338631 4
-4.4869843 -2.5614076 -0.11995339 4
-5.3583889 -3.0588512 0 35
-5.6712427 -3.2374446 0.15161292 7
-8.0275345 -4.5825405 0.6463635 8
-12.821824 -7.3193736 1.3774017 9
-52.853752 -30.171713 7.1170182 42
-4.5927701 -2.6048172 -0.61745715 40
-4.7894144 -2.7163453 -0.51369244 10
-4.485424 -2.5439353 -0.11972129 9
-5.502605 -3.1208358 0 52
-5.4089446 -3.0677156 0.14437115 1
-6.5045505 -3.689095 0.34872356 6
-8.0403004 -4.5601048 0.6463635 8
-12.449014 -7.060533 1.3352288 8
-52.137268 -29.569965 8.4238701 43
-4.3139167 -2.430768 -0.81352079 12
-4.4131174 -2.4866648 -0.5923686 13
-4.5193982 -2.546551 -0.48396701 16
-5.3597074 -3.020041 0 15
-5.6967745 -3.2099688 0.30493516 2
-8.0686455 -4.5464501 0.64761913 2
-10.136984 -5.7118993 1.0855353 5
-52.119778 -29.367998 6.9959893 41
-4.36374 -2.4428122 -0.82162684 20
-4.4079103 -2.4675386 -0.59074253 12
-4.9191928 -2.7537537 -0.52595419 5
-5.5042424 -3.0812628 0 52
-5.9581242 -3.335345 0.15852974 16
-9.2668715 -5.1875744 0.74262744 6
-10.086864 -5.646605 1.0784755 5
-52.026516 -29.124331 6.972527 41
-4.3299913 -2.4060833 -0.8138451 16
-4.3782291 -2.432888 -0.70393759 18
-4.6292176 -2.5723572 -0.61931556 26
-4.5125046 -2.5075023 -0.24074318 11
-5.4250226 -3.014569 -0.14409262 43
-5.9231324 -3.2913578 0.15732278 9
-6.1470656 -3.4157929 0.32794735 4
-10.135888 -5.6322961 1.0818197 5
-4.6102948 -2.5450211 -0.61583102 12
-4.3950062 -2.4261751 -0.46836117 27
-4.4609795 -2.4625943 -0.35631606 16
-5.9130445 -3.2641778 0.15681215 16
-6.1355906 -3.3870299 0.32682934 4
-10.055543 -5.5509615 0.80317605 9
-9.0550032 -4.9986329 0.96496153 5
-51.919567 -28.66116 8.3347998 42
-51.611046 -28.490847 11.107275 63
-4.3939052 -2.4085851 -0.70421594 15
-4.7205997 -2.5876675 -0.62953681 22
-4.5558519 -2.4973586 -0.48471019 11
-4.4577694 -2.443593 -0.355479 26
-6.1175833 -3.3534448 0.32533869 4
-8.9575272 -4.9102025 0.71430629 6
-10.173397 -5.5767002 1.082377 5
-52.454399 -28.753664 6.9952922 41
-52.258572 -28.646318 9.7911072 42
-51.795322 -28.392382 11.128753 63
-4.5575619 -2.4817691 -0.48415282 22
-4.7098823 -2.5647137 -0.37501082 37
-6.1479788 -3.3478129 0.3264567 6
-8.922143 -4.8584528 0.71039993 9
-11.129824 -6.0606208 1.1823287 6
-53.437233 -29.098646 9.9966764 44
-51.996956 -28.314362 11.155044 63
-4.7155504 -2.5496891 -0.50013024 55
-6.2949615 -3.4036734 0.33372372 4
-8.9365196 -4.8319588 0.71039993 9
-52.431381 -28.349546 9.7927284 42
-4.3859634 -2.354692 -0.5821473 14
-4.4317107 -2.3792522 0 1
-6.3384757 -3.4029369 0.33549386 5
-9.5549669 -5.1297746 1.0117791 5
-53.203918 -28.563585 8.4867764 43
-50.750374 -27.246349 9.463624 38
-50.861862 -27.306206 10.876575 56
-4.419199 -2.35765 -0.70393759 16
-4.4166508 -2.3562906 -0.58539957 7
-4.5364523 -2.4202049 -0.47969398 11
-5.5710506 -2.9721649 0.1465994 10
-6.3861427 -3.4070179 0.33754355 2
-9.3471098 -4.9866986 0.74081379 18
-9.5982342 -5.1206741 1.0149374 5
-50.786716 -27.094799 9.457139 38
-50.931454 -27.172016 10.876205 56
-4.4607663 -2.3638473 -0.70950449 20
-5.6199636 -2.9781287 0.1476671 71
-7.7160668 -4.0888944 0.40723237 4
-9.6124973 -5.0938501 1.0149374 5
-53.740944 -28.478378 8.5477343 44
-51.107857 -27.083054 10.897682 57
-5.606286 -2.9483607 0.14706361 35
-6.0260811 -3.1691322 0.31751266 4
-9.6090631 -5.053432 1.0128937 3
-11.679436 -6.1422467 1.5431782 3
-51.451443 -27.058451 8.1700182 39
-51.397259 -27.029955 9.5407934 39
-51.183987 -26.917795 10.895831 57
-5.6236134 -2.9362073 0 20
-5.6646361 -2.9576263 0.14836341 29
-9.5573702 -4.9901052 0.75392795 9
-11.590477 -6.0516329 1.219857 5
-11.704651 -6.1112456 1.5441074 1
-51.461269 -26.869017 8.158885 39
-51.344265 -26.807926 9.5161505 39
-51.418682 -26.846781 10.928788 58
-4.5097113 -2.3396091 -0.23692334 19
-4.5755148 -2.3737478 -0.11967487 11
-5.8567462 -3.0384424 0 15
-6.0716977 -3.1499577 0.15880828 16
-6.084475 -3.1565864 0.31965551 25
-9.5987387 -4.979764 0.75616014 27
-11.295178 -5.8598657 1.1871591 6
-51.345341 -26.637634 6.7643847 37
-51.230339 -26.577971 9.4821053 39
-51.262001 -26.594397 10.880649 56
-4.4666147 -2.2994721 -0.58749026 10
-5.8431458 -3.0081284 0 48
-6.0282316 -3.1034129 0.15741563 15
-6.0606117 -3.1200826 0.31788534 12
-9.8289728 -5.0600843 0.77304125 38
-50.648129 -26.074324 6.6617079 35
-51.347519 -26.434378 8.1165762 38
-51.39254 -26.457554 9.4966965 39
-51.561974 -26.544783 10.926567 58
-4.5097594 -2.3067672 -0.5923686 30
-4.8382053 -2.4747694 -0.5070042 16
-5.8474402 -2.9909985 0 16
-6.0220947 -3.0803356 0.15704425 13
-6.5952406 -3.3735027 0.34546274 16
-9.5917349 -4.9062266 0.75336987 11
-11.321649 -5.7910872 1.1864159 22
-50.541134 -25.852076 6.6387095 35
-51.393627 -26.28813 8.112957 38
-4.4882445 -2.2789865 -0.58865178 10
-5.9385028 -3.0153809 0.15463032 11
-6.0530047 -3.0735214 0.31658101 8
-9.5831251 -4.866003 0.75155622 9
-9.6147051 -4.8820386 1.0060198 5
-50.55209 -25.668726 6.6301146 35
-51.206512 -26.001022 8.0712051 38
-51.167923 -25.981428 10.812142 54
-4.5357857 -2.2862234 -0.59399474 26
-6.050981 -3.0499446 0.15732278 9
-9.5636692 -4.8204851 0.74890548 9
-9.6415949 -4.8597627 1.0073203 5
-51.426685 -25.921177 8.093751 38
-51.780827 -26.099678 9.5268507 39
-51.467678 -25.941839 10.859171 56
-4.6007724 -2.3028898 -0.60166067 26
-5.6965141 -2.8513572 0.1478992 71
-6.0455952 -3.0260878 0.31527665 11
-9.5931511 -4.8017964 0.75016111 9
-9.6426649 -4.82658 1.0060198 2
-51.184036 -25.619871 6.6935329 36
-51.575035 -25.815584 8.1057205 38
-51.557022 -25.806568 9.4723778 39
-51.909008 -25.982754 10.936935 58
-4.5388522 -2.2550809 -0.71228796 18
-4.4901028 -2.2308602 -0.35059601 95
-5.5831861 -2.773947 0.14474252 29
-6.0581255 -3.0099158 0.31546301 8
-9.6198626 -4.7795272 0.75113773 6
-51.309631 -25.492649 6.700037 36
-51.553844 -25.613983 8.0904112 38
-51.580341 -25.627148 9.4626513 38
-51.456066 -25.565403 10.825474 55
-5.5627003 -2.7432196 -0.14399979 23
-5.5677862 -2.745728 0 21
-5.6613293 -2.7918582 0.14655297 45
-6.6296539 -3.2693832 0.34471741 9
-11.374969 -5.6095133 1.1832576 6
-51.062576 -25.181273 6.6579905 35
-51.35429 -25.325129 8.0472679 37
-51.557034 -25.425112 9.4444942 38
-52.525875 -25.902891 11.034326 61
-4.4939184 -2.2005749 -0.34989849 13
-5.0998592 -2.4972908 -0.13183732 10
-5.5826173 -2.7336869 0 23
-5.8899784 -2.8841951 0.15226282 14
-6.1166291 -2.9951811 0.31760582 8
-10.928392 -5.3513975 0.8508895 10
-11.437091 -5.6004958 1.1880879 6
-50.920399 -24.934618 6.6303468 35
-51.284294 -25.11281 8.0252781 37
-51.98764 -25.457224 9.510314 39
-52.744514 -25.827848 11.06506 62
-5.6067047 -2.7260983 0.14474252 22
-6.0513043 -2.9422719 0.313786 17
-6.1059232 -2.9688292 0.47476256 6
-11.42582 -5.5554757 1.1853012 8
-50.861198 -24.729792 6.6136212 35
-52.656651 -25.602777 9.6195841 40
-4.470201 -2.1571319 -0.81546628 18
-4.6253242 -2.2319882 -0.47913668 11
-5.3334856 -2.5737171 0 4
-5.5859561 -2.6955488 0.14399979 13
-6.0672035 -2.9277785 0.31415868 13
-6.0949392 -2.9411626 0.47322792 6
-11.447633 -5.5241485 1.1858586 3
-51.249218 -24.730728 6.6545062 35
-52.027401 -25.106247 8.118803 38
-53.542881 -25.837553 9.767437 42
-4.455595 -2.1328511 -0.81157535 20
-5.3992724 -2.5845804 0 5
-5.6430912 -2.7012942 0.14525317 6
-6.1340365 -2.936305 0.31713998 8
-6.0951514 -2.9176912 0.47253034 6
-11.723581 -5.6119671 1.2126114 4
-51.228115 -24.522413 6.6417298 35
-51.873791 -24.831491 8.0826178 38
-53.296253 -25.512411 9.707777 42
-57.072746 -27.320181 11.921574 59
-4.4558167 -2.1186376 -0.81060261 16
-4.6614823 -2.2164266 -0.48155183 16
-5.3933764 -2.5644255 0 5
-5.6320863 -2.6779265 0.14478895 6
-6.2246981 -2.9596996 0.32142568 15
-6.1333995 -2.9162893 0.47490206 6
-11.565584 -5.499167 1.1947762 9
-51.541504 -24.50679 6.6740193 36
-51.790165 -24.625023 8.059515 37
-53.348602 -25.366022 9.705183 42
-57.041126 -27.121733 11.900096 59
-4.7575684 -2.2448316 -0.12213521 5
-5.408196 -2.5518265 0 5
-5.6345816 -2.6586452 0.14464968 6
-6.195509 -2.9233158 0.31946918 17
-6.1528511 -2.9031878 0.47573915 4
-11.254077 -5.3101721 1.1609634 6
-51.863701 -24.471592 6.7063093 36
-51.746567 -24.416323 8.0414228 37
-53.534283 -25.259846 9.7252865 42
-56.95425 -26.873539 11.865287 59
-4.7058783 -2.2043958 -0.12064973 7
-5.3193107 -2.4917486 0 7
-5.6365519 -2.6403553 0.14451042 14
-6.1855569 -2.8975282 0.3185375 15
-10.189933 -4.7733159 0.78685302 9
-11.041646 -5.1722875 1.1375548 5
-51.840096 -24.283688 6.6944618 36
-51.67107 -24.20451 8.0191545 37
-52.569839 -24.625525 9.5375509 39
-56.906273 -26.65686 11.839737 60
-5.5266309 -2.5677211 0 8
-5.7119117 -2.6538045 0.14622802 35
-6.2471728 -2.9024913 0.32123935 22
-10.101745 -4.6933594 0.7789008 7
-11.751299 -5.4597569 1.5153021 3
-51.836666 -24.083771 8.0330715 37
-52.285408 -24.292261 9.4720535 39
-54.42482 -25.286251 11.30687 62
-4.9549112 -2.2852945 -0.12668453 16
-5.4484205 -2.5129099 0 8
-6.2171555 -2.8674643 0.31928283 14
-6.2703495 -2.8919985 0.48285431 4
-11.263823 -5.1950784 1.1572478 13
-11.817007 -5.4502168 1.5218065 1
-51.745449 -23.865936 8.0085773 37
-52.362 -24.150299 9.4736757 39
-54.356007 -25.069971 11.277986 62
-4.7577891 -2.1772816 -0.24400403 23
-5.0143957 -2.2947111 -0.12803076 16
-5.2558045 -2.4051859 0 14
-6.321919 -2.8930662 0.32422069 9
-6.2934165 -2.8800225 0.4839704 4
-10.996711 -5.0323658 1.1282656 53
-11.800613 -5.4002519 1.5176251 7
-51.927696 -23.763393 8.025835 37
-52.275505 -23.922562 9.4451418 38
-54.510574 -24.945385 11.294649 62
-4.6738515 -2.1231055 -0.35896683 4
-4.6783586 -2.1251531 -0.23962516 4
-4.8387394 -2.1980064 -0.1233886 32
-5.0949745 -2.3144014 0 7
-4.6530547 -2.1136587 0.1186536 5
-6.3336105 -2.8770542 0.32440701 8
-6.3086996 -2.8657384 0.48452845 4
-11.404155 -5.1803579 1.1685807 13
-52.294983 -23.755093 8.072319 38
-52.20554 -23.714462 9.4204998 38
-54.696335 -24.845911 11.318719 62
-4.66643 -2.103054 -0.23869349 5
-4.9856024 -2.2468977 -0.12696306 46
-4.6696777 -2.1045177 0 4
-4.6593056 -2.0998433 0.1186536 5
-6.2619777 -2.8221309 0.32030767 5
-8.763648 -3.9495771 0.67217338 6
-52.338154 -23.587616 8.0681438 38
-52.873028 -23.828672 9.5281477 39
-54.914955 -24.748922 11.348713 62
-4.6495781 -2.0798569 -0.35617656 4
-4.8531442 -2.1709166 -0.12343502 18
-4.6445007 -2.0775857 0 4
-4.6651516 -2.0868235 0.1186536 4
-6.3136029 -2.8242114 0.32254368 6
-8.7600746 -3.918571 0.67105728 6
-30.936907 -13.838749 3.9632943 52
-52.834103 -23.633839 8.1343899 39
-52.719582 -23.582611 9.4885902 39
-4.8231015 -2.1413341 -0.4923273 38
-4.8753066 -2.1645117 -0.24875551 58
-4.7257843 -2.0981276 -0.12004624 19
-4.6740475 -2.0751579 0 4
-4.683753 -2.0794668 0.11897855 4
-6.3196387 -2.8057585 0.32245052 6
-11.161577 -4.9554553 0.85395873 12
-10.794647 -4.7925477 1.1018842 6
-31.383938 -13.933667 4.0155621 18
-52.979542 -23.521564 8.146637 39
-53.035954 -23.54661 9.5336599 39
-52.787148 -23.436146 10.88176 56
-4.7010612 -2.0694969 -0.23953199 5
-4.7122221 -2.07441 -0.1195356 6
-4.6622386 -2.0524063 0 4
-4.6664724 -2.05427 0.11837506 2
-6.3851051 -2.8108451 0.32533869 4
-8.8178663 -3.881793 0.67370802 2
-10.765907 -4.7393579 1.0974253 2
-31.531185 -13.880629 4.0288033 18
-53.112988 -23.38135 8.1558228 39
-53.10244 -23.376707 9.5323629 39
-53.256252 -23.444418 10.963226 100
-4.7491446 -2.0748508 -0.12032477 4
-4.6349626 -2.024966 0 3
-6.3725019 -2.7840786 0.16145431 4
-6.3764534 -2.7858047 0.3245002 4
-10.583804 -4.6239519 0.80764049 9
-10.799173 -4.7180443 1.0994691 5
-31.120205 -13.596087 3.9714248 35
-53.308575 -23.289951 9.5576534 40
-53.146812 -23.219278 10.927307 58
-4.613575 -1.9993412 -0.46910432 16
-4.7055702 -2.0392084 -0.23915935 64
-6.3571939 -2.754957 0.32310268 6
-9.0890427 -3.9388323 0.69268179 8
-31.648882 -13.715376 4.0336814 18
-53.604771 -23.23019 8.2106571 40
-53.19455 -23.052418 9.5249052 39
-4.6242819 -1.9896169 -0.46966165 19
-5.4402285 -2.3406813 -0.13750076 30
-5.8421969 -2.5136299 0 36
-5.8259301 -2.5066311 0.1472493 28
-6.3698907 -2.7406726 0.32338217 6
-8.0455256 -3.4616218 0.61246186 8
-11.450951 -4.9268203 1.1630071 7
-31.640888 -13.613626 4.0281062 18
-53.81459 -23.153955 8.2334814 40
-53.013611 -22.809332 9.481781 39
-53.833538 -23.162107 11.041731 61
-4.9325929 -2.1039302 -0.12450272 34
-5.7672811 -2.4599547 0 16
-5.828258 -2.4859638 0.14711003 7
-6.3729558 -2.7182972 0.32310268 6
-10.785245 -4.6002989 0.81991762 9
-31.631433 -13.491956 3.208302 36
-31.69812 -13.5204 4.0299649 36
-53.91803 -22.997999 8.2382135 40
-53.09589 -22.647327 9.4837265 39
-53.896996 -22.989027 11.03988 61
-4.8555894 -2.0550776 -0.12241374 4
-5.7520261 -2.4344852 0 10
-5.8738451 -2.4860439 0.14808488 28
-6.3952408 -2.7067192 0.32384801 4
-12.387747 -5.2429848 1.2549701 5
-31.964422 -13.528608 4.0590029 18
-53.038979 -22.448195 9.462326 38
-4.8002391 -2.0158634 -0.24279284 21
-4.9885111 -2.0949283 -0.12561683 4
-5.7495818 -2.4145405 0 10
-5.9489746 -2.4982755 0.14980249 29
-6.3659348 -2.6733782 0.32198468 5
-12.349096 -5.1860108 1.2495824 5
-54.090157 -22.715197 6.8605576 39
-31.503033 -13.229718 4.8020291 18
-53.592754 -22.506311 9.5498714 40
-4.9275632 -2.0531659 -0.24894185 29
-5.7839942 -2.4100146 0 12
-6.2290845 -2.5954702 0.15667288 37
-6.3918161 -2.6632757 0.32291633 4
-8.939393 -3.7247734 0.67719585 12
-11.038209 -4.5992861 1.1156322 5
-53.793983 -22.414318 6.8150268 38
-52.587753 -21.911718 8.006629 37
-4.8708553 -2.0125957 -0.24577418 84
-5.5142183 -2.2784278 -0.13852204 11
-5.8576632 -2.4203362 0 13
-6.2515416 -2.5830834 0.15704425 18
-9.5257101 -3.9359417 0.72072393 11
-11.550566 -4.7725949 1.1659797 6
-31.384977 -12.968003 3.9711926 17
-4.7852883 -1.9606391 -0.36161754 9
-4.9304166 -2.0201013 -0.24847601 84
-5.5357552 -2.268122 -0.13889341 28
-5.8129992 -2.3817151 0 11
-6.5182042 -2.6706531 0.16354328 10
-8.7608719 -3.589524 0.44151777 25
-9.2751884 -3.800251 0.70091301 9
-11.24589 -4.6076908 1.133839 5
-31.245012 -12.801776 3.9486594 51
-53.677174 -21.992731 8.152483 39
-4.8409925 -1.9667076 -0.36538443 21
-4.8253341 -1.9603462 -0.24288601 88
-5.7462282 -2.3344698 -0.14399979 14
-5.7903938 -2.3524127 0 10
-6.8854704 -2.7972999 0.17254907 9
-8.8325644 -3.5883284 0.44459227 18
-9.1330061 -3.7103865 0.6893335 10
-11.517128 -4.6789627 1.4537423 7
-53.573383 -21.764788 8.1268749 38
-55.188835 -22.421085 9.7868919 42
-4.8335118 -1.9479604 -0.36440784 20
-4.843761 -1.9520907 -0.24353817 33
-5.3595662 -2.1599662 -0.1341584 7
-5.8340411 -2.3511851 0 13
-6.6373315 -2.6749203 0.16614288 4
-8.9240837 -3.5965071 0.44869164 35
-9.1525841 -3.6885955 0.69003099 8
-10.731071 -4.3247442 1.0794044 6
-11.574368 -4.6646018 1.4593174 5
-52.676891 -21.229387 7.9818559 36
-56.62986 -22.822479 11.5035 61
-4.9092402 -1.9605756 -0.24651952 39
-6.1200023 -2.4441106 0 12
-6.3783135 -2.547271 0.15945818 10
-9.0392361 -3.6099486 0.45390895 12
-9.2901201 -3.7101426 0.69951797 9
-10.665083 -4.259254 1.0714157 5
-11.581586 -4.6252723 1.4583882 5
-54.431789 -21.738115 8.2373781 40
-55.742455 -22.261549 9.8614674 43
-56.639221 -22.619686 11.490911 61
-5.2631602 -2.0870211 -0.2640349 27
-5.1949725 -2.0599825 -0.12974834 15
-6.2376847 -2.473453 0.15579087 15
-8.7341719 -3.4633946 0.43816373 41
-9.403017 -3.7286146 0.70733064 9
-10.66065 -4.2273088 1.0699294 5
-11.596545 -4.5984225 1.4588529 7
-54.466331 -21.597744 8.2345943 40
-55.833374 -22.139822 9.8679523 43
-56.51162 -22.40877 11.453879 62
-4.6369786 -1.8218815 -0.58261192 10
-5.1158142 -2.0100174 -0.12761296 4
-6.433383 -2.5276937 0.16047946 14
-8.4344807 -3.3139305 0.42260489 15
-9.4759636 -3.7231319 0.71193457 6
-12.873894 -5.058188 1.2904549 6
-12.448475 -4.8910398 1.5640854 7
-55.748692 -21.903812 8.418025 43
-55.983475 -21.996059 9.8822184 43
-56.71711 -22.284307 11.481282 61
-5.1530771 -2.0080657 -0.12840213 3
-5.2234163 -2.0354757 0 2
-6.533566 -2.5460186 0.16280054 8
-8.4827919 -3.3055985 0.42456138 11
-10.396096 -4.0511804 1.0409471 5
-32.4277 -12.636518 4.0699205 18
-55.663849 -21.691248 8.3960352 42
-57.14537 -22.26857 11.555343 61
-5.214859 -2.013293 0 4
-6.265471 -2.4189012 0.15593013 20
-6.6349711 -2.5615535 0.33167404 12
-10.091625 -3.8960588 0.75643921 9
-12.397594 -4.7863212 1.5540965 7
-55.742805 -21.520544 8.397706 42
-56.516216 -21.819132 9.953228 43
-57.58725 -22.232626 11.630514 61
-6.0518627 -2.3170354 0.15045239 14
-6.6607561 -2.5501583 0.33260569 13
-6.8362126 -2.6173339 0.51187301 17
-10.046153 -3.8463018 1.0036045 3
-32.440899 -12.420426 4.0622549 18
-56.144863 -21.4958 8.4491997 43
-57.592213 -22.049936 11.619035 61
-6.286777 -2.3856118 0.15611582 33
-6.7728944 -2.570076 0.33782303 4
-6.7861228 -2.5750959 0.50754809 7
-10.078 -3.8242481 1.0056481 5
-31.78857 -12.062649 3.9760711 17
-56.397385 -21.400831 9.910428 43
-5.288837 -1.9889961 -0.13118742 12
-6.1235218 -2.3028998 0.15189146 35
-6.8141499 -2.5626273 0.33950007 13
-9.9160872 -3.7291868 0.74081379 9
-10.161995 -3.821666 1.0128937 3
-31.543463 -11.862689 3.9409933 51
-56.165771 -21.122509 8.4333344 43
-56.353497 -21.193108 9.8916225 43
-55.63039 -20.921165 11.198 63
-5.2276535 -1.9514208 0 21
-5.5128455 -2.0578794 0.13661875 7
-9.8784409 -3.6875043 0.73732597 13
-31.652382 -11.815457 3.9509826 34
-56.130009 -20.952662 8.4202518 43
-55.766041 -20.816799 11.215034 63
-4.6902771 -1.7340571 -0.23319665 71
-5.1530943 -1.9051666 0 6
-5.4930272 -2.0308442 0.13596885 6
-6.2380877 -2.306303 0.3101525 55
-9.8562918 -3.6440003 0.7348147 11
-11.096528 -4.1025319 1.1037421 12
-31.756414 -11.740764 3.9593451 34
-56.626469 -20.935549 9.9188585 43
-55.807194 -20.632652 11.210219 63
-4.9145689 -1.8013964 -0.24409717 10
-5.1396165 -1.8838856 0 4
-5.5906663 -2.0492144 0.13824351 30
-6.704073 -2.4573247 0.33297837 12
-9.8364573 -3.6054754 0.73258251 11
-11.040632 -4.0468559 1.0970539 5
-31.73872 -11.633576 3.953073 17
-56.158512 -20.584457 8.4060555 42
-56.2122 -20.604136 9.8361769 43
-5.4904022 -1.9950886 -0.2724199 44
-5.5362315 -2.0117419 0.13675801 6
-6.2396059 -2.2673323 0.3095935 18
-9.8427362 -3.5766289 0.73230344 9
-7.4939485 -2.7231324 0.74387866 5
-31.787889 -11.551004 3.955164 17
-56.139458 -20.399817 8.3946438 42
-57.382732 -20.851593 11.50313 61
-4.7912655 -1.7240175 0 51
-5.2019958 -1.8718085 0.12835571 21
-6.2730155 -2.2571883 0.31089783 18
-6.484179 -2.3331702 0.48187774 6
-7.5212045 -2.7063181 0.74573654 5
-56.780811 -20.43116 7.0568523 42
-56.095181 -20.184454 8.3785 42
-56.717873 -20.408512 9.9032946 43
-57.398022 -20.653248 11.493132 61
-5.1375217 -1.8324209 -0.12663811 28
-4.9015527 -1.7482568 0 43
-5.4896913 -1.9580305 0.13531895 4
-6.3056383 -2.2490578 0.31220216 22
-9.8713045 -3.5208385 0.73286152 9
-7.4968467 -2.6739309 0.74257821 5
-12.590048 -4.4905438 1.5631561 7
-55.865921 -19.925926 8.3359127 42
-56.761631 -20.245403 9.9010248 43
-57.601715 -20.545038 11.522386 61
-4.7740774 -1.6877763 -0.35408387 8
-4.739203 -1.6754472 -0.11670389 4
-5.0968647 -1.801891 0 12
-6.0738711 -2.1472914 0.14957038 12
-6.2478533 -2.2087991 0.3090345 10
-7.4997034 -2.651365 0.55623811 7
-7.53057 -2.6622772 0.74517918 5
-12.615651 -4.4600024 1.5647824 7
-56.005375 -19.799543 8.3484383 42
-57.044956 -20.167065 9.9405823 43
-4.7929139 -1.6775162 0 12
-7.2315369 -2.5310323 0.35729492 5
-7.4703326 -2.6146107 0.55344784 7
-10.880746 -3.8082526 1.075503 5
-12.601475 -4.4105062 1.5612978 5
-55.934574 -19.577057 8.3286753 41
-56.985085 -19.944735 9.9191818 43
-58.149288 -20.352205 11.607555 61
-4.7300844 -1.6407129 -0.23347615 10
-4.7433944 -1.6453297 -0.11656462 10
-4.7938008 -1.6628141 0 37
-5.1249814 -1.7776898 0.12594178 4
-6.6119256 -2.2934625 0.32636353 6
-7.4681802 -2.5904696 0.55275029 7
-10.82737 -3.7556636 1.0691862 5
-56.627651 -19.642296 7.0092306 41
-57.461948 -19.931686 9.9924603 44
-57.69154 -20.011324 11.504982 61
-4.7403154 -1.6294456 -0.23375565 10
-4.8173394 -1.6559219 0 43
-5.1393805 -1.766621 0.1261739 4
-6.6107469 -2.2723913 0.32599086 3
-10.075356 -3.4633229 0.74499911 9
-10.834049 -3.724118 1.0688148 5
-57.441227 -19.744963 7.1030803 42
-57.354122 -19.715021 8.5235186 43
-57.560314 -19.785898 9.9999189 44
-57.676567 -19.825859 11.490911 61
-4.7357569 -1.6121839 -0.11614683 5
-4.9509754 -1.6854503 0 20
-6.4302268 -2.1890287 0.31676733 2
-10.875213 -3.7022262 1.0717872 5
-54.804821 -18.657093 6.7701921 37
-57.387985 -19.536474 8.5198994 43
-56.860252 -19.356817 9.8682766 43
-57.582565 -19.602715 11.460546 62
-5.9224586 -1.997732 -0.1451139 13
-4.9992499 -1.6863202 0 9
-6.6518722 -2.2437739 0.16298622 10
-9.1064167 -3.0717278 0.67203391 10
-10.645873 -3.5910089 1.0481926 6
-53.589947 -18.076674 6.6138535 35
-57.365379 -19.350183 8.5084867 43
-57.629639 -19.439322 11.459064 62
-5.004488 -1.6725373 -0.12250659 12
-5.3871069 -1.8004115 0 7
-7.2763243 -2.431802 0.17811964 11
-6.5086708 -2.1752465 0.32002819 5
-9.1282053 -3.0507145 0.67301047 8
-10.648305 -3.5587432 1.0474496 5
-48.381886 -16.169588 5.9654999 23
-54.522682 -18.221888 8.079277 38
-58.210327 -19.454327 10.083572 44
-57.832821 -19.328161 11.488688 61
-5.0989399 -1.6863129 -0.1246884 15
-5.5066681 -1.821156 0 4
-5.0837536 -1.6812904 0.12431703 5
-6.5496149 -2.1660776 0.32170516 5
-9.1472149 -3.0251517 0.67370802 4
-10.723715 -3.5465291 1.0537663 11
-50.171341 -16.592583 6.1796823 27
-54.579662 -18.050495 8.079277 38
-55.119549 -18.229046 9.5381994 39
-58.572495 -19.370998 11.623479 100
-5.0311155 -1.6483098 -0.24689218 40
-5.1245298 -1.6789145 -0.12519903 15
-5.1221104 -1.6781218 0 12
-6.5822182 -2.156487 0.32300952 5
-10.617419 -3.478512 0.78127253 7
-10.864152 -3.5593474 1.0665853 11
-50.455338 -16.530336 6.208952 27
-54.166866 -17.746317 8.0108042 37
-58.065945 -19.023746 10.038828 44
-58.678658 -19.224485 11.633847 61
-5.1464968 -1.6682272 -0.25229588 87
-5.0151062 -1.6256373 0 3
-6.7409983 -2.185082 0.33046287 2
-7.2879734 -2.3623829 0.53572971 5
-10.856336 -3.5190609 1.0647274 11
-50.542923 -16.383394 6.213366 27
-54.114952 -17.54126 7.9949389 36
-57.562206 -18.65868 9.941555 43
-5.363555 -1.7230817 -0.52558261 49
-4.8864565 -1.5698103 -0.23934565 23
-5.0827165 -1.6328603 -0.12394565 3
-5.0269618 -1.6149486 0 3
-6.5085425 -2.0909173 0.15871543 7
-7.4542713 -2.3947399 0.36512092 6
-11.091125 -3.5631063 1.0868357 5
-48.688702 -15.641606 5.9803677 23
-54.158806 -17.398918 7.9946604 36
-54.497417 -17.5077 9.4042873 38
-58.032429 -18.643349 11.484245 61
-4.9340663 -1.5689698 -0.4830381 38
-4.8187451 -1.5322992 -0.23580533 12
-5.0151324 -1.5947478 -0.12218164 6
-5.001236 -1.5903289 0 4
-5.0932555 -1.61959 0.12408492 4
-7.9760213 -2.5362725 0.58525681 16
-11.122524 -3.5368202 1.0888793 5
-48.585346 -15.449517 5.9620156 23
-50.614677 -16.094818 7.4644108 28
-54.552887 -17.347118 9.4049358 38
-4.8973222 -1.5422412 -0.23943885 12
-5.0056572 -1.5763575 0 3
-7.5102773 -2.3651004 0.18280824 9
-7.6604028 -2.4123771 0.37453076 18
-7.910758 -2.4912179 0.57995528 10
-10.988004 -3.4602892 1.0747598 11
-48.789352 -15.364509 5.9817615 23
-54.559696 -17.181677 9.3978024 38
-5.0758262 -1.582888 -0.49604297 19
-5.6576819 -1.7643389 -0.13759361 32
-5.1117654 -1.5940956 0.12431703 4
-7.9703612 -2.485544 0.38934433 14
-7.9043512 -2.4649589 0.57897872 8
-10.845538 -3.3821633 1.0598971 10
-50.686733 -15.806575 6.208952 27
-54.550941 -17.011621 9.3880749 37
-5.0995522 -1.5727249 -0.12389924 4
-6.1329608 -1.8914329 0 5
-5.1243906 -1.5803852 0.12450272 4
-6.4374862 -1.9853499 0.31415868 2
-7.9044304 -2.437762 0.5784207 8
-49.392441 -15.232852 7.2642798 25
-54.632408 -16.848883 9.3929396 37
-5.2571883 -1.6042739 -0.12761296 18
-5.1323524 -1.5661793 0 3
-7.603703 -2.3203321 0.18457225 7
-6.4299731 -1.9621588 0.31350651 3
-7.2303815 -2.2064099 0.52861458 9
-49.38438 -15.070047 7.2564859 25
-50.691757 -15.469004 8.7074938 29
-5.3190684 -1.6069337 -0.12900561 29
-5.0850134 -1.5362239 0 4
-5.1372361 -1.5520006 0.12459555 1
-6.4220405 -1.9401505 0.31285435 4
-7.2556138 -2.1919799 0.53000969 7
-9.6456766 -2.9140372 0.94006652 6
-49.558979 -14.97217 6.0542397 25
-49.496418 -14.953269 7.2667847 25
-49.697582 -15.014043 8.5294857 26
-55.970825 -16.909241 11.01618 60
-5.1067271 -1.5272367 -0.24856919 31
-5.1358027 -1.5359322 0.12445629 4
-7.4891715 -2.2397394 0.54661173 7
-9.6156187 -2.8756824 0.93635082 7
-49.766167 -14.883253 6.0744495 25
-49.661312 -14.851896 7.2848773 26
-49.869774 -14.914239 8.5518579 27
-5.1304808 -1.516796 0 10
-8.127944 -2.4029779 0.19678114 7
-9.5242319 -2.8157823 0.69449544 10
-9.6532507 -2.8539257 0.93913758 6
-49.845058 -14.736393 6.0783987 25
-49.825489 -14.730607 7.302135 26
-50.241905 -14.853719 8.6076269 27
-50.251881 -14.856668 9.8730507 27
-4.9428787 -1.4472729 -0.24018417 12
-5.2098064 -1.5254291 -0.12603463 30
-5.1843386 -1.5179722 0 18
-6.537683 -1.9142308 0.15815836 1
-5.2822466 -1.5466396 0.25667471 3
-9.6502848 -2.8255992 0.70314527 9
-10.176689 -2.9797304 0.98929918 7
-50.039795 -14.651631 6.0974474 25
-49.808758 -14.583983 7.2940631 26
-50.496532 -14.785364 8.6445904 28
-4.9625034 -1.4370459 -0.24092951 8
-5.1970248 -1.5049589 -0.12561683 16
-9.7640276 -2.8274755 0.71081847 15
-10.13958 -2.9362283 0.98484033 6
-50.000195 -14.479099 7.3157735 26
-50.771454 -14.702441 8.6841478 28
-68.704819 -19.895601 13.476481 51
-4.8413548 -1.3854934 -0.35213068 34
-5.3324428 -1.5260323 -0.1287735 11
-5.2190275 -1.4935753 0.12603463 4
-5.2608643 -1.5055481 0.25518402 12
-8.1846523 -2.3422744 0.59530175 8
-10.056858 -2.8780601 0.97592276 11
-50.342258 -14.40689 6.1234651 26
-50.133022 -14.347011 7.3285775 26
-49.77953 -14.245849 8.5067883 26
-4.8738742 -1.3819238 -0.47263423 35
-5.2803707 -1.4971806 -0.12742728 11
-5.2284327 -1.4824543 0.1261739 4
-8.1826725 -2.3200905 0.59474367 6
-9.8339615 -2.7882922 0.95362872 51
-49.851753 -14.134818 6.0595822 25
-50.350857 -14.276332 7.355299 27
-49.757229 -14.108017 8.4970608 26
-68.760025 -19.496014 13.465743 51
-4.9834986 -1.3961077 -0.36189657 17
-5.2600183 -1.4735737 -0.1268238 12
-5.1401072 -1.439981 0 15
-5.171453 -1.4487624 0.1246884 4
-5.2980471 -1.4842272 0.25658154 1
-9.240798 -2.5887735 0.67105728 6
-9.7487125 -2.7310636 0.94452524 10
-49.85574 -13.966891 6.0547037 25
-50.467926 -14.138392 7.3658762 27
-68.756584 -19.261889 13.453152 51
-5.2371378 -1.4514028 -0.1261739 15
-5.4427152 -1.5083759 0.26338273 3
-9.1768532 -2.5432422 0.66589528 8
-9.8042774 -2.7171247 0.94916987 35
-49.900295 -13.829201 6.0554008 25
-50.675167 -14.043946 7.3903704 27
-50.619831 -14.02861 8.6300001 28
-68.789268 -19.06403 13.449079 51
-4.8161221 -1.3202527 -0.3492009 19
-5.0133891 -1.3743298 -0.24242018 19
-4.8285098 -1.3236486 -0.11623967 34
-5.7262845 -1.5697572 0.27689192 4
-5.9032607 -1.6182721 0.42802572 6
-9.160778 -2.5112615 0.88618916 7
-11.492783 -3.1505384 1.3935761 1
-50.823063 -13.932222 7.4062366 28
-50.710201 -13.901283 8.6387548 28
-69.200493 -18.970062 13.519067 51
-4.8514891 -1.3135761 -0.46891853 13
-4.9184608 -1.3317093 -0.35631606 19
-5.8025379 -1.5710796 0.28033909 4
-5.9391284 -1.6080624 0.43025792 6
-5.97402 -1.6175096 0.5774163 9
-11.46811 -3.1050746 1.3893948 6
-50.77673 -13.748171 7.3931541 27
-51.376537 -13.910574 8.7447815 29
-69.033989 -18.691458 13.474999 51
-5.8235078 -1.5582265 0.13996111 6
-5.9303818 -1.5868233 0.42928135 6
-10.393636 -2.7810795 1.0037904 7
-11.544436 -3.0890052 1.3975253 6
-50.205059 -13.433631 7.3040833 26
-51.244095 -13.711652 8.7152758 29
-5.8198361 -1.5409278 0.13977543 6
-5.9000611 -1.5621691 0.28462476 6
-5.9268012 -1.5692492 0.42872331 6
-10.880211 -2.8807719 1.0500506 13
-12.599044 -3.33587 1.5241295 5
-50.383656 -13.340165 7.3249593 26
-50.854382 -13.4648 8.6429701 28
-5.8009048 -1.5185928 0.13921836 6
-5.9353237 -1.5537817 0.28611544 5
-5.9755526 -1.5643131 0.43193209 6
-11.040401 -2.8902171 1.0647274 15
-41.956596 -10.983629 5.0718365 25
-39.599304 -10.366524 5.7528596 54
-70.331314 -18.411718 11.944392 56
-68.558815 -17.947704 13.352429 52
-4.9127316 -1.2696049 -0.71312302 37
-5.8695302 -1.5168718 0.14075027 6
-5.8995557 -1.5246314 0.28415895 5
-7.3635101 -1.9029634 0.5318234 7
-11.416569 -2.9504015 1.3789412 4
-39.702621 -10.26041 5.7631588 27
-40.063034 -10.353553 6.7983623 26
-70.053452 -18.104023 13.63238 50
-4.929491 -1.2592611 -0.83589345 28
-4.8222313 -1.2318611 -0.69948405 37
-5.8679314 -1.4989901 0.14061101 6
-5.8902407 -1.504689 0.28350678 5
-9.2341919 -2.3589165 0.66645336 8
-10.44767 -2.668905 1.0060198 6
-11.420916 -2.9175253 1.3784766 4
-39.70042 -10.141654 5.7587051 54
-39.92926 -10.200113 6.770802 27
-69.880936 -17.851406 13.589054 51
-9.2566261 -2.3354118 0.66756946 8
-11.183472 -2.8215477 1.0760603 21
-11.832077 -2.9851885 1.4270276 6
-11.7238 -2.9578707 1.6993037 4
-39.989964 -10.089318 6.7759895 54
-4.8814249 -1.2161721 -0.11679672 6
-5.3781042 -1.3399162 0.12868066 9
-8.5568438 -2.1318765 0.41123852 11
-9.3699903 -2.3344662 0.67524266 8
-10.302942 -2.5669043 0.99059969 6
-11.761852 -2.9303815 1.4175032 6
-39.954613 -9.9544058 6.7649651 27
-70.244995 -17.501038 13.639415 50
-5.103972 -1.2574341 -0.12204237 16
-5.3485899 -1.3176991 0.1278915 7
-5.9184122 -1.4580827 0.28425211 9
-10.307694 -2.539443 0.9904139 5
-11.522834 -2.8388093 1.6678505 11
-69.266525 -17.064766 11.720342 55
-70.227608 -17.301542 13.627195 50
-4.8760619 -1.1850504 0 13
-5.3565893 -1.3018349 0.12798433 4
-7.6973286 -1.8707149 0.36940661 8
-8.656271 -2.103771 0.62292528 14
-8.6611738 -2.1049626 0.83156872 5
-11.498646 -2.7945654 1.3838195 7
-11.56826 -2.8114841 1.6731391 9
-69.59977 -16.915133 11.767681 55
-70.031425 -17.020041 13.578686 51
-4.8987999 -1.1760979 0 10
-5.9211326 -1.4215382 0.28397259 3
-8.6873322 -2.085644 0.62473899 12
-8.6573372 -2.0784431 0.83063978 5
-11.516063 -2.7647622 1.384981 6
-40.522972 -9.7287054 5.8569613 26
-41.943863 -10.069832 7.0869365 25
-42.069374 -10.099964 8.1515064 29
-5.1945167 -1.2317611 -0.12394565 32
-4.8923349 -1.1601056 0 10
-5.616693 -1.3318706 0.13401914 27
-11.535336 -2.7353418 1.3863748 6
-40.228165 -9.5391912 5.8104777 27
-41.219067 -9.7741613 6.9598341 52
-42.047699 -9.9706526 8.1418791 29
-4.9017978 -1.1460972 0 10
-5.5118198 -1.2887274 0.13141952 6
-7.7795029 -1.818938 0.37257427 13
-9.2357492 -2.1594253 0.66324455 23
-9.1581602 -2.141284 0.87745726 11
-11.518726 -2.6932118 1.3833549 6
-40.354351 -9.4353151 5.8243947 26
-41.17078 -9.6262064 6.9465408 52
-42.053932 -9.8326969 8.1370649 43
-5.0361362 -1.162684 -0.11999982 21
-4.9303131 -1.1382527 0 10
-5.6244974 -1.2985179 0.13401914 12
-7.8371105 -1.80934 0.37508976 15
-9.2145281 -2.127342 0.66129136 17
-11.582334 -2.6739931 1.3900917 7
-40.519489 -9.3546638 5.8444357 26
-41.218655 -9.5160789 6.9501071 26
-42.163574 -9.734231 8.1529875 43
-4.8847222 -1.1133684 0 10
-5.5579205 -1.2668096 0.13234796 6
-7.972641 -1.8171937 0.38133198 21
-9.1095533 -2.0763288 0.65333909 27
-11.673037 -2.6606202 1.4000807 6
-11.784965 -2.6861317 1.6987469 6
-42.181011 -9.6142626 8.1511364 43
-4.9233203 -1.1059079 0 7
-5.5092001 -1.237512 0.13109457 1
-8.7598 -1.9676826 0.62780821 38
-8.5916739 -1.929917 0.82153636 8
-11.857712 -2.6635556 1.4212201 9
-11.7489 -2.6391137 1.692345 9
-40.606228 -9.121233 6.8375955 26
-4.894959 -1.0860832 0 10
-5.9008675 -1.3092719 0.14033248 1
-5.9662647 -1.3237821 0.28499743 9
-8.8038769 -1.9533855 0.63059849 38
-8.6627951 -1.9220827 0.82785302 16
-11.096681 -2.4621081 1.3292286 10
-41.970802 -9.3123922 6.0420613 25
-40.651161 -9.0195932 6.8411622 53
-42.747993 -9.4848347 8.2500076 28
-5.97895 -1.3079953 0.14209649 9
-5.9877305 -1.3099163 0.28583592 4
-8.8252268 -1.930666 0.63171464 17
-9.3065329 -2.03596 0.88879013 5
-11.682227 -2.5556827 1.3984545 9
-41.959549 -9.1793537 6.0364943 51
-40.668106 -8.8968287 6.839541 53
-42.852745 -9.3747549 8.2648191 28
-6.0023499 -1.2944645 0.14256071 14
-7.5812764 -1.6349752 0.36167377 6
-8.7665558 -1.8905921 0.62711072 18
-11.718886 -2.5272903 1.401939 26
-40.815865 -8.8023338 6.8599682 53
-41.816002 -9.0180225 8.0596714 14
-5.9998507 -1.2774976 0.14242144 21
-7.5953007 -1.6172034 0.36213958 5
-8.7031765 -1.853094 0.62222773 30
-10.287708 -2.1904752 0.98131043 15
-11.566142 -2.4626813 1.3828902 10
-12.434326 -2.6475363 1.7867044 9
-40.834904 -8.6946316 6.8593197 53
-41.983639 -8.9392223 8.0874434 14
-6.1977968 -1.298175 0.14701718 5
-8.6253061 -1.806635 0.6162287 14
-10.277375 -2.1526732 0.97963846 10
-11.652018 -2.4406023 1.3921824 73
-41.0975 -8.6081791 5.9012179 26
-41.018044 -8.5915365 6.8852587 53
-42.19965 -8.8390331 8.1233635 14
-5.7978139 -1.1985606 0.13745435 7
-8.553647 -1.7682638 0.40732554 14
-5.3124256 -1.0982181 0.3793357 11
-10.282974 -2.1257613 0.97963846 65
-12.105792 -2.5025856 1.4456117 14
-41.507801 -8.5807543 5.9568877 26
-40.545628 -8.3818474 6.8022528 26
-41.937786 -8.6696434 8.0685587 29
-5.6992607 -1.1616007 0.13504042 7
-5.2874312 -1.0776633 0.25164372 6
-7.9644113 -1.6232747 0.56837577 8
-10.160089 -2.0707891 0.96737671 22
-41.223038 -8.4019165 5.9126306 26
-40.671368 -8.2894773 6.819438 26
-41.048992 -8.3664427 7.893034 15
-5.6675944 -1.1366118 0.13420482 7
-5.3084202 -1.0645809 0.25248218 8
-7.965559 -1.5974587 0.5680967 6
-10.297361 -2.0650918 0.97982419 10
-42.465328 -8.5162401 5.0648675 25
-41.311371 -8.2848186 5.9215374 26
-42.283924 -8.4798603 7.0853157 51
-40.936329 -8.2096062 7.8663726 47
-4.9115496 -0.97073174 -0.23347615 36
-5.6761985 -1.1218591 0 10
-5.929667 -1.1719552 0.14033248 11
-5.2976527 -1.0470423 0.25183001 6
-8.7450666 -1.7283984 0.62334388 8
-10.096011 -1.9954026 0.96013111 11
-12.088195 -2.389143 1.4409657 1
-12.192019 -2.4096632 1.7466224 9
-41.026581 -8.1086025 7.8793335 31
-4.9926801 -0.97228742 -0.23720282 44
-5.3245125 -1.0369093 0.12594178 11
-5.2966342 -1.0314803 0.25164372 14
-8.7106924 -1.6963428 0.62055361 8
-8.8974895 -1.73272 0.84568822 8
-11.968081 -2.3306952 1.4258661 6
-42.208481 -8.2197886 6.0434532 25
-41.117966 -8.0074196 6.8823409 26
-41.010479 -7.9864864 7.8719273 31
-5.052815 -0.9675321 -0.11944276 32
-5.2590117 -1.0070155 0.12431703 8
-8.9040937 -1.7049896 0.63394684 8
-8.8598614 -1.6965199 0.84160101 11
-12.098258 -2.3166203 1.440501 6
-41.475468 -7.9418793 5.9348979 26
-41.170059 -7.8833985 6.8868804 53
-41.017994 -7.8542805 7.8685942 15
-5.2577 -0.99250293 0.12422419 19
-5.9562178 -1.1243631 0.28266826 15
-8.7712908 -1.655768 0.62418091 8
-8.8192663 -1.6648244 0.83732802 8
-12.102329 -2.2845724 1.4402688 6
-41.334579 -7.802783 5.9117951 26
-41.279758 -7.7924342 6.9017954 26
-42.258999 -7.9772868 8.1026268 14
-5.2443423 -0.97387528 0 25
-5.242929 -0.97361284 0.12380639 9
-5.9497066 -1.1048616 0.28220242 12
-9.0233269 -1.6756333 0.64175957 8
-8.8496189 -1.6433758 0.83974314 5
-11.439151 -2.1242523 1.3605894 6
-41.532806 -7.7126493 5.9368463 26
-41.423004 -7.6922588 6.9218984 26
-42.238041 -7.8436117 8.0941095 14
-5.1586733 -0.94214225 0 40
-5.4660907 -0.99828672 0.12900561 28
-6.0158491 -1.0986905 0.28518376 13
-8.8123646 -1.6094257 0.62641317 10
-43.778526 -7.995389 6.2544398 24
-41.830048 -7.639533 6.9860978 52
-42.342327 -7.7330923 8.1096621 44
-4.9231009 -0.88491946 0 10
-5.5849643 -1.0038882 0.13174447 27
-5.0711293 -0.91152728 0.24027735 3
-7.9213967 -1.4238582 0.56279528 4
-9.7330704 -1.7495037 0.92260277 18
-10.85488 -1.9511471 1.2897373 9
-41.625271 -7.4820747 5.9438052 26
-41.740498 -7.5027866 6.9676161 52
-42.063927 -7.5609226 8.0522652 30
-4.9634862 -0.87787688 -0.23505998 33
-5.0029821 -0.88486242 -0.11795727 19
-4.9354 -0.87290937 0 29
-5.0913606 -0.90049362 0.24111584 2
-7.9410586 -1.4045112 0.56391138 6
-9.6692867 -1.7101778 0.91610032 28
-12.391916 -2.191721 1.4716295 5
-41.281303 -7.3013 5.8917546 26
-41.819588 -7.3965049 6.9773431 52
-41.813923 -7.395503 8.0004225 45
-4.9811296 -0.86486787 -0.35352582 29
-5.1022668 -0.8859008 -0.12023193 42
-9.4882231 -1.6474293 0.89845091 40
-8.967802 -1.5570693 1.0644051 1
-41.243546 -7.1610703 5.8831258 26
-41.79401 -7.2566466 6.9692373 52
-41.933769 -7.2809129 8.0189381 30
-5.1520228 -0.87972581 -0.12134604 28
-5.0257187 -0.85815889 0.23776183 6
-7.9950619 -1.3651845 0.75669783 8
-39.675468 -6.774724 4.7068911 27
-41.499607 -7.0862017 5.9168057 26
-42.51445 -7.2594895 7.0859637 25
-41.636211 -7.1095271 7.9582081 30
-4.9453454 -0.83022857 -0.23384884 15
-5.260941 -0.88321102 -0.12385282 32
