# .PCD v0.7 - Point Cloud Data file format
VERSION 0.7
FIELDS x y z intensity
SIZE 4 4 4 4
TYPE F F F F
COUNT 1 1 1 1
WIDTH 1406
HEIGHT 1
VIEWPOINT 0 0 0 1 0 0 0
POINTS 1406
DATA ascii
-0.38698664 6.4755225 -1.3788705 10
-0.42595899 7.1276541 -1.3453152 12
-0.4469507 7.8953419 -1.2992338 12
-0.51289892 9.0603104 -1.2753824 18
-0.59055483 10.432096 -1.2219055 10
-0.67889619 11.992638 -1.1206484 10
-0.82215148 14.523228 -1.0171889 26
-0.98800755 17.45306 -0.81520998 17
-1.3938334 24.621935 -0.57256395 21
-0.27718902 4.8965178 -1.4063019 14
-0.30093914 5.3160615 -1.393896 13
-0.3327271 5.8775926 -1.3948836 12
-0.3664214 6.4727998 -1.3780388 10
-0.40356606 7.1289568 -1.3453152 12
-0.42670128 7.9300613 -1.304746 12
-0.48897639 9.0874176 -1.2790009 16
-0.55778843 10.366261 -1.2140071 10
-0.64540011 11.994487 -1.1206484 10
-0.77826411 14.463707 -1.012864 23
-0.87539053 16.268761 -0.75977582 3
-1.3158238 24.454025 -0.56857163 29
-0.26650843 4.9529457 -1.4222889 14
-0.28598714 5.3149495 -1.3933895 13
-0.31693807 5.8901591 -1.3976504 12
-0.34855276 6.4777045 -1.3788705 10
-0.38460493 7.1477194 -1.348648 12
-0.40666729 7.9726124 -1.311555 11
-0.46511254 9.1184177 -1.2831761 15
-0.52742326 10.340004 -1.210755 10
-0.61048454 11.9684 -1.1180474 10
-0.72140837 14.143034 -0.99026293 42
-0.8906157 17.460302 -0.81530321 17
-1.2275705 24.066219 -0.55947304 28
-1.7598357 34.501148 0 22
-0.25453779 4.9901514 -1.4327631 13
-0.27075052 5.3079977 -1.3913635 12
-0.3014808 5.9104571 -1.4022616 12
-0.33046332 6.478653 -1.3788705 10
-0.36814874 7.2174659 -1.3616086 12
-0.38133714 7.9679375 -1.3105824 11
-0.43826455 9.1574202 -1.2884647 15
-0.49398899 10.321768 -1.208432 10
-0.56926668 11.894674 -1.1109877 10
-0.65542096 13.694846 -0.95873296 9
-1.1416399 23.854261 -0.55445951 28
-1.6498199 34.472546 0 22
-0.23922811 4.9986072 -1.4349682 13
-0.25481459 5.3242831 -1.3954154 15
-0.28356344 5.9249821 -1.4054893 10
-0.31001616 6.4777045 -1.3784546 10
-0.34688333 7.248034 -1.3671632 10
-0.35857671 7.988749 -1.3138248 11
-0.41179982 9.174509 -1.2906914 15
-0.46522903 10.364861 -1.2133102 10
-0.53164685 11.844587 -1.1061573 10
-0.6345517 14.137211 -0.98956537 22
-0.77874321 17.349661 -0.80989957 12
-1.0693269 23.823589 -0.55367035 27
-1.759883 39.208523 0 27
-0.22456683 5.0031362 -1.4360707 14
-0.23901448 5.3250155 -1.3954154 15
-0.26615521 5.9296856 -1.4064116 12
-0.29053003 6.4727335 -1.3772072 10
-0.3250218 7.2411776 -1.365682 10
-0.33849558 8.0093784 -1.3170671 9
-0.38845009 9.1913862 -1.2929183 15
-0.43582925 10.312457 -1.207038 10
-0.49929249 11.814105 -1.1031847 10
-0.58684176 13.885669 -0.97184724 21
-0.72353649 17.120098 -0.79909217 16
-0.92067289 21.784679 -0.50622749 6
-1.7437962 41.261169 0 30
-0.21195576 5.0152316 -1.4393783 13
-0.22564551 5.3391547 -1.3989609 15
-0.2505492 5.9284182 -1.4059505 10
-0.27416271 6.4871535 -1.380118 10
-0.30656242 7.2537861 -1.3679038 10
-0.31573471 8.0359831 -1.3212824 11
-0.36039674 9.1727085 -1.2901348 16
-0.4049927 10.307751 -1.2063413 13
-0.46259192 11.773748 -1.0992832 20
-0.67194754 17.102205 -0.79816049 20
-0.19790314 5.0369706 -1.4454424 13
-0.2108648 5.3668666 -1.406052 15
-0.23272718 5.9233012 -1.4045672 10
-0.25567988 6.5074863 -1.3842762 11
-0.28465074 7.244844 -1.3660523 8
-0.29260781 8.0566072 -1.3245246 11
-0.33016172 9.0906096 -1.2784443 21
-0.37469745 10.316848 -1.2072704 13
-0.42657447 11.745219 -1.0964966 30
-0.83891565 23.098543 -0.53663361 19
-0.85859591 23.640415 0 21
-0.18372573 5.0586691 -1.4515064 13
-0.19592416 5.3945384 -1.4131432 15
-0.21515244 5.9239659 -1.4045672 12
-0.23821792 6.5590467 -1.3950876 11
-0.26344025 7.2535133 -1.3675334 8
-0.27057263 8.0712004 -1.3267944 9
-0.30159107 8.9964828 -1.2650836 24
-0.34495592 10.290059 -1.2040181 10
-0.39377597 11.746365 -1.0964966 30
-0.41056553 12.247198 -0.85688853 2
-0.58910429 17.573023 -0.81996155 13
-0.77930343 23.246675 -0.54002237 27
-1.2485751 37.245079 0 25
-0.17024356 5.0783768 -1.4570191 12
-0.18299915 5.4588771 -1.4298577 13
-0.199001 5.9362135 -1.4073339 10
-0.22081944 6.587059 -1.4009091 11
-0.24259219 7.2365417 -1.3642007 10
-0.24593556 8.0956821 -1.3306853 9
-0.27242601 8.9676924 -1.2609084 28
-0.31323224 10.310947 -1.2063413 10
-0.35536239 11.697783 -1.0918519 20
-0.54894203 18.070019 -0.84306699 23
-0.71944714 23.68269 -0.55009586 27
-0.15463977 5.0904164 -1.4603268 12
-0.16673097 5.4884334 -1.4374552 15
-0.18141569 5.9718237 -1.415634 12
-0.20048219 6.5994525 -1.4034041 11
-0.21914199 7.2136941 -1.3597571 10
-0.22555524 8.1258898 -1.3355489 11
-0.25179818 9.0713224 -1.2753824 22
-0.28562269 10.289889 -1.2037859 10
-0.33014202 11.89375 -1.1100588 35
-0.37140122 13.380161 -0.93599236 6
-0.65920013 23.748451 -0.55158138 20
-0.13248971 4.7730956 -1.4899696 11
-0.14136186 5.0927253 -1.460878 13
-0.15246473 5.4927192 -1.4384682 13
-0.16647811 5.9975677 -1.4216286 10
-0.18330748 6.6038651 -1.4042356 11
-0.2003592 7.2181726 -1.3604977 10
-0.20154743 8.1304693 -1.3361974 11
-0.22488792 9.0720301 -1.2753824 19
-0.25465444 10.272819 -1.2016952 10
-0.29446417 11.878752 -1.1085725 32
-0.41810584 16.866486 -0.78679419 4
-0.59167331 23.868237 -0.55432028 28
-0.64793813 26.137972 0 26
-0.11837753 4.7753768 -1.4905653 11
-0.12687354 5.1181078 -1.4680446 11
-0.1365061 5.5066872 -1.4420137 13
-0.14931317 6.0233274 -1.4276232 10
-0.16366851 6.6024251 -1.4038199 11
-0.17933595 7.2344537 -1.3634601 10
-0.17716226 8.1191931 -1.334252 12
-0.19723251 9.0389957 -1.2706505 18
-0.22417025 10.273529 -1.2016952 10
-0.24109939 11.049376 -1.0311005 10
-0.36047181 16.520111 -0.77058315 7
-0.52149945 23.899868 -0.55501658 28
-0.57159632 26.195765 0 13
-0.10424843 4.7776155 -1.491161 12
-0.11189546 5.1280723 -1.4708011 11
-0.12071391 5.5322142 -1.4485983 13
-0.13160898 6.0315261 -1.4294676 10
-0.14407606 6.6028814 -1.4038199 11
-0.15799662 7.2408485 -1.364571 12
-0.15095554 8.0822191 -1.3280914 12
-0.16484208 8.8257103 -1.2405891 81
-0.19274911 10.319862 -1.207038 13
-0.20597865 11.028177 -1.0290569 35
-0.43861416 23.483574 -0.54531449 27
-0.089203879 4.7760105 -1.4905653 12
-0.096000999 5.1399312 -1.4741086 11
-0.10344283 5.5383697 -1.4501178 11
-0.11266091 6.0319095 -1.4294676 10
-0.1224563 6.5563588 -1.3938402 12
-0.13550638 7.2550645 -1.3671632 10
-0.12916335 8.0431213 -1.3216065 12
-0.14116487 8.7904663 -1.2355789 100
-0.16633879 10.35807 -1.2114519 13
-0.19938806 12.416078 -0.86832863 4
-0.3667025 22.834902 -0.53022748 26
-0.6860103 42.718494 0 32
-0.082606927 5.1440096 -1.4752113 11
-0.089099273 5.5482941 -1.4526502 11
-0.096932493 6.0360761 -1.4303899 10
-0.10516677 6.5488319 -1.3921767 12
-0.11679739 7.2730808 -1.3704959 10
-0.1050635 8.0257082 -1.3186884 12
-0.11826857 9.0344324 -1.2698154 22
-0.1364601 10.424067 -1.2191178 13
-0.14253055 10.887783 -1.0158663 7
-0.17675124 13.501871 -0.94422358 11
-0.22625911 17.283735 -0.80607969 8
-0.27350205 20.892582 -0.48510566 5
-0.067392804 5.148077 -1.4763138 11
-0.072609812 5.5465999 -1.4521438 11
-0.07914827 6.0460668 -1.4326954 11
-0.085528761 6.5334668 -1.3888502 12
-0.095240802 7.2753611 -1.3708662 10
-0.081511475 8.0516396 -1.3229036 12
-0.091484062 9.0367231 -1.2700938 19
-0.10585432 10.456207 -1.2228347 15
-0.10970309 10.836386 -1.0110359 10
-0.12849218 12.692356 -0.88758141 4
-0.18628474 18.401058 -0.85815996 33
-0.21353921 21.093235 -0.48974779 17
-0.38544595 38.074047 0 26
-0.052079875 5.1444092 -1.4752113 11
-0.056133829 5.5448556 -1.4516373 13
-0.061111487 6.0365448 -1.4303899 10
-0.065827534 6.5023923 -1.382197 11
-0.073695078 7.279542 -1.3716068 10
-0.060459122 8.0557718 -1.323552 11
-0.065905385 8.7814503 -1.2341871 100
-0.08028356 10.697245 -0.99803102 10
-0.13805942 18.395491 -0.85788047 23
-0.15838486 21.10372 -0.48997992 17
-0.038523469 5.1329932 -1.4719036 12
-0.041528363 5.5333757 -1.4485983 13
-0.045130465 6.0133314 -1.4248564 12
-0.048860755 6.5103674 -1.3838603 12
-0.054546226 7.2679181 -1.369385 12
-0.035014655 8.0243454 -1.318364 12
-0.038742501 8.8786592 -1.2478261 57
-0.043608479 9.9938011 -1.1687083 23
-0.046609346 10.681513 -0.99654478 7
-0.055629838 12.748749 -0.89148772 6
-0.092315748 21.156097 -0.49118686 5
-0.022356559 5.1234765 -1.4691472 14
-0.024120297 5.5276737 -1.4470787 13
-0.026019188 5.9628448 -1.4128673 14
-0.028425934 6.5144014 -1.384692 11
-0.031603046 7.2425032 -1.364571 12
-0.011154888 7.9869175 -1.3122036 12
-0.012347886 8.8411055 -1.2425375 63
-0.013874682 9.9342937 -1.1617393 18
-0.024875123 17.810627 -0.83058256 18
-0.0071127778 5.0927601 -1.4603268 14
-0.0077175628 5.5257869 -1.4465723 13
-0.0083443569 5.9745727 -1.415634 12
-0.009095652 6.5125012 -1.3842762 12
-0.010164702 7.2779422 -1.3712364 12
0.011126472 7.9691553 -1.3092854 12
0.012493202 8.9480534 -1.2575682 24
0.013642756 9.7714033 -1.1426907 40
0.016473323 11.798752 -1.1007695 10
0.017969774 12.87056 -0.89999801 6
0.025915854 18.561811 -0.86561328 19
0.033505134 23.997511 -0.55715197 21
0.057997763 41.539963 0 30
0.0070809443 5.0716119 -1.4542627 14
0.0077177607 5.5277214 -1.4470787 15
0.0083389338 5.9726267 -1.4151729 12
0.009076314 6.5007634 -1.3817812 13
0.010180615 7.2917008 -1.3738286 12
0.034747887 7.9631667 -1.3083127 11
0.039122965 8.9658022 -1.2600734 22
0.042993288 9.8527632 -1.152215 32
0.051466938 11.794668 -1.1003979 10
0.080995187 18.561651 -0.86561328 19
0.1041557 23.869343 -0.55418098 21
0.022079844 5.0600338 -1.4509552 14
0.023917809 5.4812393 -1.4349227 15
0.026027821 5.9647908 -1.4133284 12
0.028596817 6.5535269 -1.3930085 11
0.031766165 7.2798457 -1.3716068 12
0.059629884 7.9452562 -1.3053944 11
0.067287929 8.9656363 -1.2600734 22
0.074048884 9.8664856 -1.153841 25
0.10180279 13.564495 -0.9485485 23
0.14056376 18.729118 -0.87343931 30
0.17793782 23.708944 -0.55046725 27
0.26974046 35.94099 0 23
0.038119595 5.079164 -1.4564679 13
0.04074439 5.4288993 -1.4212471 15
0.044765472 5.9646797 -1.4133284 12
0.049139865 6.5475364 -1.3917609 12
0.054605398 7.2757797 -1.3708662 12
0.081714027 7.9351926 -1.3037734 12
0.092567615 8.9891777 -1.2634134 21
0.10080159 9.7887726 -1.1447814 17
0.11981196 11.634857 -1.0855353 100
0.13166708 12.7861 -0.89413851 6
0.19475418 18.912445 -0.88201064 20
0.24175262 23.476431 -0.54508233 20
0.32192943 31.262344 0 18
0.052282479 5.0771155 -1.4559165 12
0.056003258 5.4384379 -1.4237796 15
0.06136068 5.9586935 -1.411945 12
0.067785315 6.5825849 -1.3992459 11
0.074780077 7.2618418 -1.3682741 12
0.10374619 7.925066 -1.3021522 11
0.11712808 8.9472952 -1.2575682 21
0.12855563 9.8202333 -1.1484982 17
0.15631989 11.941117 -1.114146 34
0.24969092 19.073635 -0.88955718 20
0.30318215 23.159777 -0.53774774 19
0.38415864 29.345488 0 16
0.066537298 5.0827165 -1.4575704 12
0.071292982 5.4459987 -1.4258056 13
0.077823751 5.9448771 -1.4087172 12
0.086015455 6.5706334 -1.3967509 12
0.094880797 7.2478476 -1.365682 12
0.12596941 7.930665 -1.3031248 11
0.1395324 8.7845507 -1.2347438 34
0.15764879 9.9251051 -1.1608101 100
0.16977017 10.688231 -0.99728787 5
0.21682936 13.650941 -0.95468712 68
0.29742944 18.725286 -0.87334615 20
0.36810532 23.174831 -0.53811914 19
0.49843556 31.380043 0 18
0.080729783 5.0825109 -1.4575704 12
0.08631549 5.4341702 -1.4227666 13
0.094392747 5.9426908 -1.4082561 12
0.1043316 6.5684114 -1.3963351 12
0.11490049 7.233798 -1.3630898 10
0.14808108 7.928309 -1.3028005 11
0.16388069 8.7742252 -1.2333521 43
0.18492216 9.9007921 -1.1580225 45
0.25566119 13.688182 -0.95733786 16
0.35129181 18.808277 -0.87725919 20
0.43152043 23.103743 -0.53649431 19
0.095031783 5.0880322 -1.4592242 11
0.10134736 5.4261703 -1.4207406 13
0.11095298 5.9404583 -1.4077951 12
0.12249299 6.5583143 -1.3942559 12
0.13532305 7.2452397 -1.3653116 12
0.17315854 7.9356971 -1.3040975 12
0.1881164 8.6212025 -1.2119194 82
0.21598023 9.8981762 -1.1577902 42
0.41303286 18.928917 -0.88294232 20
0.73721653 33.785961 0 21
0.11088902 5.0819421 -1.4575704 12
0.11826599 5.420022 -1.419221 13
0.12982604 5.9498086 -1.4101006 12
0.14309466 6.5578971 -1.3942559 12
0.15812542 7.2467432 -1.365682 10
0.19708946 7.950932 -1.3066915 12
0.2197262 8.8641376 -1.2461561 34
0.24499667 9.8835926 -1.1561642 35
0.31365049 12.653207 -0.88507015 6
0.46462712 18.743866 -0.87437099 30
0.56122869 22.640944 -0.52581739 6
0.12601125 5.0835133 -1.4581218 12
0.13391192 5.4022403 -1.4146626 13
0.14728208 5.9416151 -1.4082561 12
0.1624504 6.5535321 -1.3934243 12
0.1801085 7.2658906 -1.369385 10
0.22035326 7.9384751 -1.304746 12
0.24806157 8.936698 -1.2564549 34
0.27608746 9.9463634 -1.1635978 65
0.36802471 13.258506 -0.92748207 6
0.52168602 18.794327 -0.87679332 20
0.65859044 23.726463 -0.55107075 20
0.87436163 31.499868 0 18
0.14104192 5.0811944 -1.4575704 13
0.14994168 5.4018188 -1.4146626 13
0.16518229 5.9508791 -1.4105618 12
0.18151638 6.5393324 -1.3905135 12
0.20161365 7.26336 -1.3690147 10
0.24234244 7.9319119 -1.3037734 12
0.27537814 9.013176 -1.2673104 24
0.30386493 9.9455538 -1.1635978 84
0.40145725 13.139769 -0.91925079 9
0.55770051 18.253637 -0.85163832 14
0.71392202 23.366796 -0.54276127 13
0.95207113 31.161459 0 18
0.15505616 5.0750165 -1.4559165 12
0.16473204 5.3917093 -1.41213 13
0.18203919 5.9581752 -1.4124062 12
0.19971919 6.5368452 -1.3900977 12
0.22207828 7.268662 -1.3701257 12
0.26620042 7.9824877 -1.3122036 13
0.30146918 9.0400839 -1.2712072 18
0.33276078 9.9784174 -1.1675469 36
0.42072448 12.616163 -0.88269842 2
0.61259758 18.369816 -0.85713518 19
0.84734148 25.409025 -0.59025055 15
0.92736071 27.808542 0 14
0.16903457 5.068799 -1.4542627 13
0.18043183 5.4105659 -1.4171951 13
0.19854608 5.9537535 -1.4114839 12
0.2180368 6.5382171 -1.3905135 12
0.24237409 7.2680135 -1.3701257 14
0.28724477 7.8711667 -1.294046 18
0.32921612 9.0212784 -1.268702 16
0.37366799 10.239362 -1.1982107 42
0.67656726 18.539499 -0.86514747 19
0.90914631 24.912701 -0.57878441 14
0.96402192 26.416418 0 13
0.18474653 5.06248 -1.4526091 13
0.19813327 5.4293075 -1.42226 13
0.2175321 5.9608798 -1.4133284 10
0.23900293 6.5492301 -1.3930085 11
0.26441616 7.2456112 -1.3660523 12
0.30767685 7.8308935 -1.2875613 20
0.35316569 8.9886608 -1.2642486 18
0.40616274 10.337524 -1.2098258 23
0.47127017 11.994618 -1.1199052 36
0.56545287 14.391726 -1.007144 32
0.71861649 18.289997 -0.85359484 19
0.89990723 22.904152 -0.53217715 6
1.036931 26.391638 0 13
0.19790325 5.0369706 -1.4454424 13
0.21337159 5.430666 -1.4227666 13
0.23471381 5.9738612 -1.4165562 10
0.25698569 6.5407176 -1.3913451 11
0.28441942 7.2389517 -1.3649414 12
0.3272422 7.7431874 -1.2732947 25
0.33592835 7.9487185 -1.1181167 6
0.43750209 10.352151 -1.2116841 15
0.50811589 12.02301 -1.122692 34
0.60857004 14.399952 -1.0078416 32
0.76697236 18.14806 -0.84707308 9
1.1839682 28.014994 0 14
0.21276525 5.0344396 -1.4448911 13
0.22915599 5.4222765 -1.4207406 11
0.25235429 5.9711943 -1.4160951 12
0.27729866 6.5614262 -1.3959192 11
0.30340558 7.1791663 -1.3538322 14
0.33901975 7.5530348 -1.2421675 31
0.39421615 8.7827578 -1.2355789 19
0.4640713 10.339064 -1.2102903 15
0.53673679 11.95798 -1.1167469 34
0.65208656 14.527863 -1.01691 31
0.73825204 16.447548 -0.76778811 3
1.0123061 22.553209 -0.5241462 6
1.2567781 27.999811 0 14
0.22568764 5.0281038 -1.4432372 14
0.2431789 5.4177923 -1.4197277 13
0.26772609 5.9646807 -1.4147117 12
0.29474077 6.5665412 -1.3971667 11
0.31858853 7.0978465 -1.3386497 14
0.37846318 7.8791633 -1.2959915 22
0.42104414 8.7656498 -1.2333521 24
0.49759653 10.359381 -1.2128457 18
0.57601863 11.992038 -1.1200911 73
0.69293505 14.426101 -1.0099342 30
0.79154623 16.479073 -0.76937193 3
1.0684725 22.244354 -0.51704371 12
1.130844 23.542858 0 10
0.24157403 5.0292907 -1.4437886 13
0.2601043 5.4150691 -1.419221 13
0.28608873 5.9560347 -1.4128673 12
0.3158367 6.5753527 -1.3992459 11
0.33824378 7.041842 -1.3282812 12
0.39886379 7.84654 -1.2908037 20
0.44421634 8.7387257 -1.2297336 24
0.52703083 10.36787 -1.2140071 21
0.6192134 12.181307 -1.1379263 23
0.73595673 14.477909 -1.0137011 21
0.99163073 19.507587 -0.91089243 21
1.1263297 22.157413 -0.51509398 18
1.1940525 23.489672 0 20
0.25542384 5.024756 -1.442686 12
0.27512845 5.4123898 -1.4187146 13
0.3027218 5.9552126 -1.4128673 12
0.33390138 6.568584 -1.3979983 12
0.35581377 6.99965 -1.3205049 10
0.42234075 7.8235707 -1.287237 18
0.46856996 8.6799355 -1.2216617 21
0.56291729 10.427654 -1.2212086 18
0.57696933 10.687959 -0.99858844 5
0.78283203 14.501423 -1.0155147 31
0.89815313 16.637667 -0.77701163 3
1.2179165 22.561062 -0.52456397 12
1.6044176 29.720726 0 16
0.27151826 5.0296884 -1.4443399 12
0.29244244 5.4172945 -1.4202341 13
0.32100838 5.9464588 -1.4110229 12
0.35453427 6.5675025 -1.3979983 12
0.37917799 7.0240107 -1.3253188 10
0.44765374 7.8834424 -1.2972885 20
0.48359847 8.5164499 -1.1988372 36
0.58651453 10.328862 -1.2098258 28
0.6958859 12.254955 -1.1451719 10
0.75047976 13.216385 -0.92566842 4
0.94381505 16.621132 -0.77635944 11
1.2845377 22.621454 -0.52604949 6
1.6825265 29.63027 0 16
0.28588882 5.0346684 -1.4459937 11
0.30811673 5.426115 -1.4227666 11
0.33772209 5.9474826 -1.4114839 12
0.37320441 6.5723467 -1.3992459 12
0.39934716 7.0327353 -1.3271703 14
0.47096035 7.9038315 -1.300855 16
0.5037297 8.4537783 -1.1902084 33
0.60330713 10.124924 -1.186131 55
0.72939861 12.241037 -1.1440572 10
0.78762531 13.218221 -0.92594743 9
1.4460653 24.268404 -0.56444013 21
2.5260322 42.392811 0 31
0.30017743 5.0376887 -1.4470962 11
0.32292452 5.4194393 -1.4212471 11
0.35421535 5.9445734 -1.4110229 12
0.39248928 6.5869012 -1.4025724 13
0.42109114 7.0669079 -1.3338358 15
0.4946264 7.928092 -1.3050703 16
0.53288323 8.5412893 -1.202734 63
0.63912243 10.244139 -1.2003014 23
0.76233703 12.219077 -1.1421993 10
1.5138257 24.264271 -0.56444013 28
2.4861128 39.848526 0 28
0.31412354 5.0349121 -1.4465449 11
0.3380563 5.4185166 -1.4212471 11
0.37008625 5.9319067 -1.4082561 12
0.41063708 6.5818739 -1.4017407 13
0.44620767 7.1520147 -1.3501291 12
0.51878953 7.9364362 -1.3066915 13
0.57630819 8.8163567 -1.2417026 27
0.65733266 10.055867 -1.1784651 55
0.79157192 12.109458 -1.132167 13
0.89653409 13.715168 -0.96110469 95
1.119285 17.12281 -0.80021024 4
1.5678098 23.984337 -0.558034 28
1.9579095 29.952076 0 17
0.32906011 5.033958 -1.4465449 11
0.35450944 5.4232817 -1.4227666 11
0.38742992 5.9268985 -1.4073339 12
0.42914206 6.5650101 -1.3984141 13
0.46780944 7.1565437 -1.35124 12
0.53668535 7.8521662 -1.2930733 22
0.59112251 8.6486292 -1.2183214 37
0.67836446 9.9250536 -1.1633655 76
0.82369941 12.051429 -1.126965 15
0.95926744 14.034904 -0.98370576 17
1.2858859 18.813612 -0.87940198 20
1.5718924 22.998133 -0.53519452 13
0.34399623 5.0329595 -1.4465449 12
0.37139231 5.4337878 -1.4258056 11
0.40514818 5.9276648 -1.4077951 12
0.44848746 6.5617561 -1.3979983 15
0.49078566 7.1806149 -1.3560541 12
0.56561285 7.9490652 -1.3092854 15
0.62019014 8.7160892 -1.2280636 63
0.70748591 9.942934 -1.1656884 100
0.85381454 11.999422 -1.1223205 18
0.99845409 14.032171 -0.98370576 30
1.6325574 22.943794 -0.53403401 19
2.741488 38.528591 0 26
0.35845801 5.0377321 -1.4481987 11
0.38601461 5.4250097 -1.4237796 11
0.4226656 5.9400988 -1.4110229 12
0.46375379 6.5175481 -1.3888502 16
0.5097186 7.1635327 -1.3530916 12
0.5898453 7.975009 -1.3138248 13
0.65051568 8.7953033 -1.2394757 31
0.72645605 9.8220568 -1.1517503 25
0.89407456 12.088345 -1.1308665 21
1.0542624 14.254165 -0.99947077 80
1.4033124 18.973501 -0.88722807 20
1.6945536 22.91123 -0.53338414 19
2.8676505 38.772099 0 26
0.37138933 5.0213733 -1.4437886 11
0.39845017 5.3872499 -1.4141561 13
0.43925083 5.9388957 -1.4110229 12
0.4822399 6.5201297 -1.3896819 13
0.52899492 7.1522813 -1.35124 12
0.60670453 7.8490458 -1.2933975 23
0.78535271 10.16025 -1.1917062 42
0.93737638 12.127007 -1.134768 18
1.1110551 14.37392 -1.0081205 25
1.4728397 19.054394 -0.89123416 20
1.6227418 20.993704 -0.48886579 11
0.38581529 4.9913621 -1.4355195 12
0.41258395 5.3376732 -1.4014935 15
0.45879135 5.9354663 -1.4105618 12
0.50219905 6.4970398 -1.3851078 15
0.55316275 7.1563668 -1.352351 12
0.62300807 7.7943144 -1.2846431 21
0.56209475 7.0322418 -0.99146926 2
0.81986648 10.257166 -1.2033213 47
0.96928412 12.126496 -1.1349537 15
1.1377181 14.233736 -0.99849421 25
1.5201781 19.018608 -0.88974351 15
1.896757 23.729902 -0.55269545 6
3.0203948 37.787483 0 25
0.39061114 4.8868489 -1.4057506 15
0.42578742 5.326931 -1.3989609 15
0.47417557 5.9323044 -1.4101006 14
0.51764989 6.4762015 -1.3809495 12
0.57252485 7.1627302 -1.3538322 10
0.6329205 7.633122 -1.2583796 31
0.58606553 7.0680437 -0.99675781 1
0.86063594 10.379407 -1.2179562 23
0.99999189 12.060061 -1.1290087 21
1.1878563 14.325736 -1.0051908 37
1.4554222 17.552622 -0.82135904 4
1.9562474 23.592655 -0.54963166 20
0.4120982 4.9699697 -1.4300066 13
0.4404707 5.3121471 -1.3954154 16
0.49161306 5.9289322 -1.4096395 14
0.53605336 6.464889 -1.3788705 11
0.59247398 7.1453304 -1.3508698 10
0.63479108 7.3893552 -1.2184979 83
0.76468617 8.901413 -1.2556198 6
0.89398199 10.406496 -1.2214408 18
1.0291268 11.979664 -1.1217631 26
1.2207978 14.210831 -0.99737805 17
1.4456002 16.827667 -0.78763264 12
2.0171766 23.481165 -0.54717135 6
1.6820326 19.579885 0 6
0.43062872 5.0127811 -1.442686 12
0.44844854 5.2202148 -1.3716098 12
0.50287449 5.853766 -1.3921169 16
0.55205327 6.4262371 -1.3709698 10
0.6136741 7.1435413 -1.3508698 12
0.69884962 7.8770428 -1.2992338 22
0.79268956 8.9347544 -1.26063 6
0.92549473 10.43166 -1.2246931 18
1.0666218 12.022366 -1.1260362 36
1.2484853 14.072229 -0.9878912 25
1.4795182 16.676304 -0.78073829 4
1.747364 19.695312 -0.45906314 5
3.0378995 34.241508 0 21
0.44462448 5.011559 -1.442686 12
0.46114263 5.197742 -1.3660382 14
0.52076614 5.8697858 -1.3962671 18
0.56688356 6.389595 -1.363485 10
0.63188207 7.1222224 -1.3471668 12
0.72077489 7.8592119 -1.2966399 25
0.95571446 10.420955 -1.2237638 15
1.1039228 12.036995 -1.1277082 34
1.2916881 14.084357 -0.98900729 20
1.6025184 17.4736 -0.81828451 13
2.1472631 23.413406 -0.54587156 20
3.1875145 34.756142 0 22
0.4607203 5.0236192 -1.4465449 13
0.476385 5.1944246 -1.3655318 12
0.5419113 5.9089122 -1.4059505 14
0.58476627 6.3761964 -1.36099 11
0.6542666 7.1340165 -1.3497589 12
0.98144984 10.382649 -1.2195824 18
1.1324759 11.980336 -1.122692 70
1.318063 13.943642 -0.97938091 10
1.588141 16.800766 -0.78698051 8
1.9403681 20.526939 -0.47869948 5
0.47474861 5.0223131 -1.4465449 13
0.49580646 5.2450814 -1.3792074 15
0.55712968 5.8938131 -1.4027226 14
0.60441267 6.3940144 -1.3651483 10
0.67400318 7.1302052 -1.3493886 12
0.8640967 8.8604755 -1.2511663 69
1.0107119 10.363873 -1.217724 18
1.1670544 11.967013 -1.1217631 94
1.3628243 13.974445 -0.65477669 9
2.2768524 23.34692 -0.54461813 6
3.1782029 32.589397 0 20
0.48125231 4.9347768 -1.4217377 16
0.514373 5.2743974 -1.3873113 17
0.57404959 5.886323 -1.4013393 14
0.62547195 6.41361 -1.3697224 10
0.69611186 7.1379542 -1.35124 14
0.7127465 7.0907278 -1.1708344 3
0.88027442 8.7573729 -1.2369707 30
1.0480071 10.426054 -1.22539 15
1.1896025 11.83471 -1.1096871 100
1.403273 13.960402 -0.65431088 12
2.2933054 22.814852 -0.53236282 13
4.5864468 45.628071 0 36
0.49781153 4.952457 -1.4272504 14
0.52034134 5.1765938 -1.3619863 26
0.59072965 5.8768492 -1.3994949 12
0.64703804 6.4370308 -1.375128 10
0.72042793 7.1671467 -1.357165 10
0.72585899 7.0120234 -1.1581891 2
0.87199682 8.4237604 -1.1902084 43
1.0787358 10.420923 -1.2251576 15
1.2413236 11.991571 -1.1247357 28
1.6168706 15.619473 -0.73229158 14
2.3157022 22.370401 -0.52215004 12
0.5002318 4.8323946 -1.3930713 14
0.54048109 5.2212152 -1.3741423 24
0.60736424 5.8673277 -1.3976504 14
0.66674048 6.4409204 -1.3763756 11
0.74654919 7.2118969 -1.3660523 8
0.85041046 7.9970946 -1.3212824 8
0.94515419 8.8880463 -1.2561765 33
1.1065751 10.406017 -1.2237638 18
1.2520672 11.774197 -1.104671 76
1.6404173 15.426166 -0.72344071 13
2.6046119 24.493265 -0.57186759 21
4.651032 43.7374 0 33
0.51575893 4.8500967 -1.398584 14
0.56508607 5.3139596 -1.3989609 24
0.62292522 5.8578677 -1.395806 12
0.68700182 6.4604316 -1.3809495 10
0.76502526 7.1941485 -1.3630898 12
0.86597794 7.9199867 -1.3089612 13
0.9226492 8.4382858 -1.192992 21
1.1391659 10.418486 -1.2256222 15
1.299759 11.887224 -1.1156322 49
1.5550781 14.222301 -1.0004474 20
2.0674858 18.908636 -0.88704175 20
2.7020328 24.712021 -0.57715964 29
4.7561898 43.498753 0 33
0.53662187 4.9077902 -1.4156735 13
0.58841765 5.3814998 -1.4171951 18
0.64008772 5.8540597 -1.3953449 12
0.70871466 6.4817019 -1.3859395 10
0.78892612 7.2152929 -1.3675334 14
0.89123809 7.9330711 -1.311555 12
0.94304121 8.3941803 -1.1871467 12
1.1725157 10.436774 -1.2281775 15
1.3419187 11.944661 -1.1213915 28
1.6344715 14.548726 -1.023746 31
1.6951212 15.088579 -0.70806813 3
4.8734102 43.379108 0 33
0.55096799 4.9042654 -1.4151223 15
0.60546392 5.3893437 -1.4197277 16
0.65745592 5.8521342 -1.3953449 12
0.72881866 6.4873466 -1.3876027 11
0.80396968 7.1562791 -1.3567947 14
0.9138661 7.9225507 -1.3102582 12
0.95387053 8.2693605 -1.1698891 13
1.1996056 10.399704 -1.2242285 18
1.3670826 11.851607 -1.1130313 60
1.6803721 14.567598 -1.0254202 15
1.7481211 15.154932 -0.71142215 3
2.8337386 24.566442 -0.57414228 29
4.1037025 35.576103 0 23
0.56749862 4.9197984 -1.4200838 18
0.62167245 5.3894458 -1.4202341 16
0.6768226 5.8675575 -1.3994949 12
0.74604499 6.4676647 -1.3838603 13
0.82272047 7.1323848 -1.3527213 12
0.9306711 7.8868117 -1.304746 15
0.98015714 8.3061724 -1.175456 7
1.2249638 10.380744 -1.22237 21
1.392036 11.796569 -1.1082009 52
1.3897654 11.777327 -0.82926494 7
1.8238437 15.45585 -0.72576988 3
2.8532851 24.179674 -0.56527579 28
3.4247711 29.022633 0 16
0.5736168 4.8610168 -1.4035454 20
0.63464528 5.3781919 -1.4177015 18
0.69377708 5.8792944 -1.4027226 12
0.76710045 6.5006604 -1.3913451 12
0.83447921 7.0716505 -1.3416121 22
0.9568705 7.8956041 -1.3066915 17
1.0052962 8.2951889 -1.1743428 9
1.2563778 10.366985 -1.2212086 21
1.4470611 11.940405 -1.1221347 26
1.6555138 13.66045 -0.96222079 21
1.8678282 15.41236 -0.72399968 3
2.9655645 24.470316 -0.57228541 29
0.58888668 4.8591909 -1.4035454 20
0.64967757 5.360806 -1.4136496 18
0.71411878 5.8925419 -1.4064116 10
0.78940374 6.5137548 -1.3946717 11
0.83872247 6.9207072 -1.3134691 45
0.98911983 7.9751587 -1.3203095 17
1.2782357 10.306266 -1.2144717 31
1.4894714 12.009436 -1.1290087 42
1.6894839 13.622112 -0.95984906 21
2.0173383 16.265566 -0.76434094 3
2.7752452 22.37648 -0.52349633 6
4.1050334 33.098408 0 20
0.60624141 4.8880539 -1.4123658 15
0.66631383 5.3724113 -1.4171951 16
0.72937518 5.8808675 -1.404106 12
0.80783331 6.5134664 -1.3950876 11
0.8914308 7.1875033 -1.364571 12
1.0242178 8.0622482 -1.3352246 13
1.0513101 8.2755079 -1.1723944 19
1.4663705 11.542704 -1.0855353 20
2.0932829 16.477518 -0.77458924 11
2.9897881 23.53446 -0.55079222 20
3.5113325 27.639856 0 14
0.62267935 4.9014916 -1.4167761 16
0.68127489 5.3627334 -1.4151691 18
0.74559355 5.8690252 -1.4018005 12
0.82271665 6.4761086 -1.3876027 11
0.91473293 7.2004251 -1.3675334 12
1.0348978 7.957407 -1.318364 24
1.080711 8.3096676 -1.1776829 19
1.33988 10.302439 -1.2149364 39
1.5129372 11.633088 -1.0944529 22
1.7849507 13.72462 -0.96780133 9
2.1359768 16.423685 -0.77235323 15
3.0629508 23.551258 -0.55139565 20
3.5917733 27.617416 0 14
0.64192969 4.9358459 -1.4272504 18
0.69668341 5.3568511 -1.4141561 18
0.76250094 5.862927 -1.4008782 12
0.84722519 6.5143781 -1.3963351 11
0.93533117 7.1918316 -1.3664225 14
1.0558176 7.944705 -1.316743 27
1.1960156 8.9996519 -1.2759391 33
1.3270388 9.9855614 -1.1780005 100
1.5766385 11.863723 -1.1165612 60
2.2471077 16.9088 -0.79545861 16
3.1242356 23.508919 -0.55060655 13
0.65596533 4.9359388 -1.4278016 18
0.71036696 5.3452945 -1.4116236 16
0.77861565 5.8588452 -1.4004171 12
0.86567307 6.5139256 -1.3967509 11
0.95877898 7.214519 -1.3712364 14
1.0936557 8.057107 -1.3358732 15
1.207551 8.8961887 -1.2617434 30
1.3939217 10.269207 -1.2119166 39
1.4619035 10.770037 -1.0140084 5
2.1994495 16.203636 -0.7625708 3
3.3052316 24.35008 -0.57052141 14
6.5476823 48.237648 0 40
0.673105 4.9588542 -1.4349682 14
0.72684914 5.3547945 -1.4146626 16
0.79366106 5.8470068 -1.3981115 12
0.88332951 6.507606 -1.3959192 11
0.97363025 7.1728635 -1.3638304 19
1.1080652 7.9854078 -1.3245246 24
1.2382993 8.923955 -1.266197 85
1.3831606 9.9679165 -1.176839 100
1.7944897 12.93221 -0.91297269 4
2.1948004 15.817097 -0.74468273 10
3.3604336 24.217377 -0.56764323 29
5.7193346 41.217087 0 30
0.68860936 4.9625478 -1.436622 14
0.74406505 5.362196 -1.4171951 16
0.81314754 5.8600473 -1.4018005 12
0.90290493 6.5068946 -1.3963351 11
0.98734653 7.1154337 -1.3534619 24
1.1441984 8.0799847 -1.3407367 13
1.425477 10.066289 -1.1889186 57
1.8294812 12.919247 -0.91241467 4
2.2610955 15.967175 -0.75204295 7
3.4000208 24.009924 -0.5630011 28
0.70219666 4.9587016 -1.4360707 14
0.76012295 5.3677592 -1.419221 15
0.83414918 5.8905106 -1.4096395 12
0.92107403 6.5043478 -1.3963351 11
0.96560353 6.8188019 -1.297546 33
1.4773059 10.201344 -1.205412 31
1.7375169 11.998198 -1.1310523 13
1.8017167 12.441522 -0.87907106 2
2.2929184 15.833451 -0.74608022 10
2.2939322 15.840451 -0.37160483 6
0.71529073 4.9393473 -1.4311093 14
0.77143562 5.3270488 -1.409091 13
0.85404408 5.897491 -1.411945 12
0.94094145 6.4975495 -1.3955034 11
0.99377972 6.8624172 -1.3064332 26
1.1537788 7.8133874 -1.2976128 33
1.3363795 9.0499592 -1.2856812 18
1.4817005 10.034073 -1.186131 57
1.5493459 10.492167 -0.98948497 2
1.8443202 12.489733 -0.88283789 6
2.0318487 13.759675 -0.6486277 3
3.3543258 22.715487 -0.53310555 6
0.72037405 4.8783717 -1.4140197 15
0.7854597 5.3191314 -1.4075714 13
0.87164593 5.9027843 -1.4137896 12
0.95565194 6.471673 -1.3905135 12
1.0726579 7.2640371 -1.3834565 14
1.1912729 7.8955879 -1.3118793 28
1.3677571 9.0653 -1.2884647 16
1.4438658 9.5697374 -1.1317725 25
1.7605517 11.668687 -1.1009552 7
1.8564599 12.304353 -0.87014228 4
2.3674557 15.691161 -0.74002439 7
3.5748169 23.69338 -0.55631638 28
0.73569536 4.8760843 -1.4140197 15
0.77041358 5.1061921 -1.3518562 40
0.78101635 5.176466 -1.2404089 17
0.97364235 6.4531636 -1.387187 13
1.1019226 7.3033876 -1.3916032 13
1.2033838 7.8458362 -1.3040975 20
1.3733925 8.9542608 -1.2731557 39
1.9022523 12.402328 -0.87739694 6
2.2810071 14.871737 -0.70163959 3
3.6154299 23.571922 -0.55367035 27
7.6103058 49.617767 0 42
0.74790084 4.876173 -1.414571 16
0.7996093 5.2133026 -1.3807268 14
0.89604408 5.8420391 -1.4004171 12
0.78179973 5.0971875 -1.0961106 2
0.91208297 5.9466095 -1.1335012 1
1.2487869 7.9746017 -1.3261459 24
1.3907902 8.8814173 -1.2634134 45
1.5922557 10.167952 -1.2035536 28
1.7634634 11.261264 -1.063427 40
2.8738658 18.35216 -0.86626548 9
3.7237968 23.779715 -0.55882311 28
0.76589197 4.8908935 -1.4195324 18
0.81688052 5.2164998 -1.3822464 14
0.92492974 5.9064889 -1.4165562 10
1.0133011 6.4708176 -1.3921767 5
1.1378311 7.2660508 -1.3856783 7
1.2794446 8.0237036 -1.3349004 17
1.4028022 8.7973099 -1.2520013 24
1.628154 10.210545 -1.2091289 21
1.7594731 11.034079 -1.0424334 10
1.9921534 12.493272 -0.8846516 6
2.1301262 13.358533 -0.63083285 8
3.5669646 22.369291 -0.52591026 6
0.77954841 4.8887353 -1.4195324 16
0.81743115 5.126307 -1.3589473 15
0.94203484 5.9077268 -1.4174784 10
1.0319852 6.4718266 -1.3930085 5
1.1426448 7.1657996 -1.3671632 14
1.3163691 8.0917196 -1.3468974 20
1.4371095 8.8339109 -1.2578466 27
1.6675577 10.250476 -1.2144717 18
1.9364164 11.90315 -1.1251072 21
2.1675892 13.324169 -0.62952852 8
3.6577654 22.48428 -0.52888119 6
0.79551947 4.8900576 -1.420635 18
0.84378314 5.1867337 -1.3756618 14
0.85153037 5.2343564 -1.2565482 19
1.0548238 6.4840002 -1.3963351 5
1.1487392 7.0612993 -1.3479073 15
1.3436007 8.1072464 -1.3501397 17
1.4720595 8.8823624 -1.2653619 31
1.6869245 10.178851 -1.2065735 34
1.8190305 10.975975 -1.0379746 2
2.0664773 12.469061 -0.88381457 8
2.1718397 13.104815 -0.61946648 8
3.6329339 21.921013 -0.51588321 6
0.80656892 4.8668127 -1.414571 22
0.86201733 5.2013865 -1.3802204 14
0.85369492 5.1511693 -1.2371811 6
0.84792471 5.1163521 -1.1023479 3
1.3549865 8.0453176 -1.3404126 24
1.5028725 8.923399 -1.2717639 30
2.5880404 15.366652 -0.7267015 10
7.8356695 46.52478 0 38
0.82409596 4.8931212 -1.4228401 15
0.87338138 5.1857567 -1.3766749 17
0.98482597 5.847466 -1.4050283 8
0.85839146 5.0967531 -1.0986055 4
1.1297311 6.707849 -1.2816229 21
1.3651751 7.9615116 -1.3271188 39
1.5357002 8.9559898 -1.2770525 22
1.5564107 9.0767698 -1.0769494 10
1.879963 10.963682 -1.0377889 10
2.642061 15.408133 -0.72903067 10
7.9625144 46.436275 0 38
0.83828479 4.8887601 -1.4222889 14
0.87960726 5.1297469 -1.3624928 17
0.85120338 4.9640994 -1.1933749 4
1.1181711 6.521018 -1.4063148 5
1.1981238 6.9872909 -1.3356873 56
1.4054197 8.0526886 -1.3430065 22
1.5595448 8.9357853 -1.2748258 21
1.9196776 10.999252 -1.0416902 15
1.913713 10.965075 -0.77834278 7
2.5356071 14.528366 -0.68775779 3
8.0861731 46.331665 0 38
0.84419376 4.8370099 -1.4079556 13
0.91711265 5.2548161 -1.3964285 16
0.88600558 5.0765805 -1.221042 11
0.91821975 5.2611594 -1.1351979 1
1.2012807 6.8830252 -1.3164314 87
1.4227486 8.0115643 -1.3368459 26
1.5843178 8.9213676 -1.273434 24
1.7206993 9.6893387 -1.1508212 55
2.4457901 13.772359 -0.97812527 10
3.160322 17.795921 -0.84288067 4
8.2015667 46.183411 0 38
0.8645916 4.868556 -1.4178786 15
0.93912667 5.2882667 -1.406052 15
1.0113142 5.6947579 -1.3704444 11
0.90919667 5.1197295 -1.1052587 4
1.2419723 6.9936042 -1.3382794 33
1.4415998 7.9801178 -1.3323065 27
1.6312002 9.0296698 -1.2895781 43
1.6954088 9.3851023 -1.1152791 15
1.7080779 9.4552336 -0.89640725 9
1.9759055 10.937819 -0.77722663 7
3.1857591 17.635082 -0.83570677 13
3.996294 22.12188 -0.521918 6
8.330018 46.111637 0 37
0.88928539 4.9227266 -1.4344169 14
0.94277394 5.2188182 -1.3883245 17
0.93998456 5.2033772 -1.2528592 12
0.92925102 5.143961 -1.1110802 3
1.3039446 7.2181139 -1.3819753 28
1.4717191 8.0187654 -1.3394397 23
1.668568 9.0913105 -1.2990419 33
1.7459978 9.5131922 -1.1310756 45
1.7093146 9.3133211 -0.88340235 9
2.012568 10.965619 -0.77959836 1
3.2303102 17.600573 -0.8344956 13
8.4028072 45.783283 0 37
0.90719485 4.9429154 -1.4410322 13
0.97480893 5.3113151 -1.4136496 18
1.0873088 5.9242783 -1.4271619 8
1.3138094 7.1583834 -1.3712364 40
1.4818075 7.9486609 -1.3284156 28
1.6950365 9.0924568 -1.2998768 27
1.7984025 9.6469288 -1.1475689 20
2.1984296 11.79274 -1.1191621 7
2.2281926 11.952394 -0.85019189 6
3.2673624 17.526674 -0.83142114 18
8.489933 45.541409 0 37
0.91218549 4.8931141 -1.4272504 18
0.99920994 5.3599277 -1.4273251 18
1.1077704 5.9422641 -1.4322343 11
0.98234588 5.2694659 -1.1393563 19
1.3262291 7.1141124 -1.3634601 33
1.4966589 7.9057093 -1.3219308 24
1.7101085 9.0332003 -1.2920831 24
1.8349447 9.6926155 -1.1536088 45
1.8157548 9.5912495 -0.91071266 9
3.3229873 17.552811 -0.83309805 13
4.1346269 21.840084 -0.51606888 6
8.6487103 45.684547 0 37
0.92692024 4.8962135 -1.4289041 15
1.0148952 5.360918 -1.4283382 16
1.1239998 5.9372349 -1.4317732 10
1.164448 6.1508918 -1.330635 66
1.3629093 7.1992121 -1.3804941 22
1.363019 7.0913873 -1.186398 3
1.7229893 8.9642067 -1.2828977 30
2.2680182 11.799833 -1.12102 10
2.3190153 12.065155 -0.85912079 6
3.3470998 17.413977 -0.82694906 4
4.7281132 24.598984 -0.58156973 15
0.94893491 4.9370294 -1.4415834 14
1.0251132 5.3333631 -1.4217536 16
1.1427783 5.9455395 -1.4345398 11
1.1638948 6.0554028 -1.3106754 80
1.3663129 7.1085243 -1.3638304 33
1.5401356 7.8792572 -1.3190126 19
1.7435422 8.9198751 -1.2773309 22
1.9419657 9.9350004 -1.183808 84
2.3039291 11.786786 -1.1204625 10
2.3431268 11.98732 -0.85409826 8
3.3837748 17.311224 -0.8225702 4
4.7696929 24.401512 -0.57725251 7
0.96517706 4.937798 -1.442686 14
1.040749 5.32442 -1.4202341 15
1.1211298 5.7356439 -1.3847392 12
1.2444589 6.36659 -1.3788705 22
1.381096 7.0656185 -1.3564243 33
1.578647 7.9581647 -1.332955 12
1.7669055 8.9071999 -1.2762173 22
2.0060377 10.112697 -1.2056442 28
2.356987 11.881878 -1.1301234 23
2.3785369 11.990514 -0.85479581 6
3.5907109 18.10124 -0.86058229 19
4.8086448 24.241001 -0.57377088 21
9.0532732 45.638729 0 37
0.9699859 4.8898249 -1.4294554 13
1.0544856 5.3157988 -1.4187146 15
1.0424765 5.2552595 -1.2694594 8
1.244725 6.2748199 -1.3597426 17
1.3916456 7.0154657 -1.347537 26
1.5853051 7.8622398 -1.3177156 13
1.7897887 8.8763657 -1.2725989 22
2.0307286 10.071295 -1.201463 26
2.40729 11.938831 -1.1362542 18
2.4114602 11.959514 -0.8531217 8
3.8442097 19.065163 -0.90697944 21
4.8851671 24.227737 -0.57381731 14
0.98534197 4.8867531 -1.4294554 13
1.1943822 5.9234772 -1.4317732 10
1.2636572 6.2670431 -1.3589109 20
1.405519 6.9705997 -1.3397607 21
1.6112081 7.8771186 -1.3209581 11
1.6335874 7.9865298 -1.145673 12
2.0556583 10.050015 -1.1996044 18
2.4214635 11.838419 -1.1273366 39
2.4316521 11.888229 -0.84851772 6
3.8565955 18.85471 -0.89747638 26
5.0016832 24.45299 -0.57948077 14
9.2217207 45.084549 0 36
0.99821311 4.8802161 -1.4283528 13
1.0193213 4.9834132 -1.3315961 26
1.2105279 5.9182124 -1.431312 10
1.2854644 6.2845736 -1.363485 20
1.4300981 6.9916806 -1.3445747 22
1.6357751 7.8781004 -1.3219308 12
1.842088 8.8717289 -1.273434 16
2.0786014 10.010808 -1.1956553 18
2.4436212 11.768789 -1.1213915 34
3.8146338 18.371759 -0.87502313 20
3.914089 18.850748 -0.44699353 5
0.98806429 4.7586432 -1.3936225 29
1.0974305 5.2853642 -1.4131432 16
1.2276856 5.9126892 -1.430851 10
1.3128539 6.3228712 -1.3726331 35
1.4556301 7.0104985 -1.3490182 22
1.6557378 7.8638444 -1.3203095 13
1.8566567 8.818099 -1.2664753 16
2.1085982 10.014684 -1.1968169 18
2.4933016 11.841812 -1.1290087 44
2.5358467 12.04388 -0.86065537 10
3.7144525 17.641609 -0.84073776 4
4.4870205 21.310883 -0.505624 6
0.99659729 4.7332897 -1.3870072 33
1.1400917 5.4148092 -1.4485983 20
1.2465998 5.9206643 -1.4336177 9
1.3712169 6.512527 -1.4146312 17
1.4950457 7.1006455 -1.3671632 19
1.667932 7.8067875 -1.311555 12
1.8819873 8.8086777 -1.2659186 16
2.1370606 10.002553 -1.1961199 18
2.557554 11.970679 -1.1420135 18
3.0905578 14.465414 -1.034349 10
5.0774498 23.7651 -0.56420803 7
8.7030239 40.734669 0 30
1.0130484 4.7415919 -1.3903148 29
1.271482 5.9511957 -1.4419178 9
1.3950319 6.5294733 -1.4192053 16
1.5091282 7.0635033 -1.360868 21
1.6537999 7.6362209 -1.2836703 36
1.8906468 8.7298326 -1.2553415 18
2.3439705 10.823 -1.0331442 5
2.5177574 11.62544 -0.8317762 7
5.0980835 23.539782 -0.55919451 14
1.0429689 4.8157825 -1.4129173 22
1.2893306 5.9533281 -1.4433011 9
1.4111887 6.5159931 -1.4171263 15
1.5280141 7.0554194 -1.3601273 17
1.9303024 8.7941599 -1.2653619 18
2.1847968 9.953598 -1.1917062 13
2.3639367 10.769732 -1.0286853 10
2.5455046 11.596928 -0.83024156 7
3.6861482 16.793524 -0.80179399 12
5.1599374 23.507879 -0.55877674 28
1.0778453 4.9104977 -1.4415834 11
1.1946535 5.442657 -1.4587283 10
1.3067839 5.953506 -1.4442234 9
1.4293783 6.5120273 -1.4171263 16
1.5363322 6.9992933 -1.3501291 14
1.7372819 7.7977147 -1.3125279 22
1.9596456 8.795785 -1.2664753 19
2.2195146 9.9621954 -1.1935645 13
2.4137845 10.834167 -1.0355594 20
2.5715153 11.542135 -0.82689321 7
3.7458441 16.813059 -0.8032847 4
8.8624468 39.778709 0 29
1.326329 5.9531703 -1.4451456 9
1.4489801 6.5036845 -1.4162946 15
1.5523318 6.9675741 -1.344945 15
1.7791779 7.8692169 -1.3254975 24
1.9916348 8.8089037 -1.2692589 24
2.2477326 9.9416113 -1.1919385 10
3.8021667 16.816797 -0.80403 17
8.9728098 39.686298 0 29
1.0879036 4.8117442 -1.414571 12
1.3454529 5.9508724 -1.4456067 11
1.4650896 6.4800196 -1.4121363 17
1.5859147 7.0144229 -1.3549432 15
1.8001629 7.8725405 -1.3267944 23
2.0127144 8.8020792 -1.2689804 36
2.2737923 9.9438343 -1.1928678 13
2.6346059 11.521758 -0.82647473 7
3.7475047 16.388729 -0.78399909 4
5.5382705 24.220173 -0.57683474 14
1.3560873 5.9304924 -1.4414567 11
1.4674026 6.4173007 -1.3992459 23
1.6131283 7.0545936 -1.3634601 14
1.8280064 7.8803034 -1.329064 17
2.0604949 8.8825321 -1.2815059 19
3.3718467 14.535604 -1.0434173 7
3.7718828 16.260109 -0.77840912 11
5.6084547 24.177336 -0.57623124 7
1.4994905 6.4641137 -1.4104731 17
1.6379465 7.0609794 -1.365682 14
1.8536329 7.8844528 -1.3306853 20
2.0682509 8.7973337 -1.2700938 30
2.3385758 9.9471645 -1.1949584 21
3.3880103 14.410949 -1.0351861 13
3.819186 16.244959 -0.7782228 11
5.6517782 24.039917 -0.57335311 7
1.3009795 5.5337338 -1.3469274 13
1.486871 6.3244262 -1.3809495 55
1.6597844 7.0599155 -1.3664225 14
1.8724464 7.8658056 -1.3284156 20
2.0643764 8.6720676 -1.2528365 22
2.3645077 9.9328651 -1.1940292 21
3.4180799 14.358728 -1.0321168 10
3.8566751 16.201189 -0.77663898 11
5.068337 21.291159 -0.50813073 6
8.9676218 37.671345 0 26
1.4056634 5.9049349 -1.4382288 15
1.5004511 6.3031206 -1.3772072 55
1.6794951 7.0552521 -1.3664225 14
1.8916289 7.8490343 -1.3264701 22
2.110857 8.7586899 -1.266197 22
2.3852534 9.8972569 -1.1905447 18
2.6486654 10.990247 -1.0546951 15
3.4590962 14.353009 -1.0323958 10
3.8934746 16.155397 -0.77496201 11
5.7714348 23.947718 -0.57191402 7
11.191729 46.438423 0 39
1.3961567 5.7931457 -1.411945 21
1.5400463 6.3901949 -1.3971667 22
1.696887 7.0409822 -1.364571 19
1.9101908 7.8181295 -1.322255 17
2.1435361 8.7731771 -1.2692589 18
2.4116225 9.8704166 -1.1882217 21
2.4676583 10.099761 -0.96997768 9
3.5117507 14.373078 -1.034628 31
3.956542 16.193544 -0.77738434 7
5.8513927 23.948889 -0.57237828 21
11.246436 46.030006 0 38
1.4448367 5.9135041 -1.442379 15
1.5429361 6.3150101 -1.3817812 35
1.718534 7.0337062 -1.3642007 15
1.9301813 7.8111858 -1.3219308 20
2.1679249 8.773303 -1.2700938 16
2.4427001 9.8852816 -1.1907771 21
2.5222788 10.207325 -0.98093891 9
3.5359712 14.309603 -1.0307217 10
4.0046787 16.2064 -0.77850229 11
5.9217525 23.964542 -0.57312101 14
11.300229 45.730518 0 38
1.5819916 6.4021082 -1.4017407 19
1.7312869 7.0062866 -1.3597571 17
1.9484768 7.7801962 -1.3177156 22
2.1978805 8.7760553 -1.2714856 16
2.4776022 9.8929749 -1.1926354 31
2.583894 10.317393 -0.74374354 7
4.0764399 16.277073 -0.78250843 16
5.9999199 23.95746 -0.57339948 7
11.393785 45.494965 0 38
1.1788512 4.7071095 -1.2703092 11
1.4774544 5.8994212 -1.4409956 9
1.6020952 6.3971071 -1.4017407 15
1.7594949 7.0255985 -1.364571 14
1.9778578 7.7992506 -1.3219308 22
2.2273161 8.7829342 -1.273434 16
2.4722731 9.7488689 -1.176142 100
2.3584297 9.2999516 -0.89510679 7
3.6223307 14.28387 -1.0304426 10
4.1826634 16.49342 -0.79350215 16
6.1009536 24.057777 -0.57623124 14
11.300105 44.559498 0 36
1.2618011 4.975637 -1.4719036 11
1.497821 5.9063296 -1.4437622 9
1.6085646 6.3430233 -1.3909293 12
1.7866119 7.0451136 -1.369385 17
2.0055141 7.8166366 -1.3258216 24
2.254786 8.7881908 -1.275104 18
2.5700817 10.017079 -1.2093612 23
3.651294 14.231183 -1.0273733 13
4.195437 16.35202 -0.78726 12
6.3231425 24.644907 -0.59071475 15
11.369814 44.314671 0 36
1.2718678 4.9571962 -1.4674934 12
1.5114059 5.8908143 -1.4409956 9
1.6199501 6.3138728 -1.3855237 15
1.8106735 7.0572309 -1.3727177 15
2.0387402 7.8549404 -1.3332791 22
2.279321 8.7818594 -1.275104 16
2.6679771 10.27929 -0.99078548 10
3.2905459 12.677948 -0.91590255 2
4.2190051 16.255152 -0.78316063 4
5.273293 20.317158 -0.48733386 11
11.459365 44.151104 0 36
1.2861902 4.9554853 -1.4680446 13
1.3872434 5.3448272 -1.4455593 9
1.5205183 5.8583145 -1.4340787 9
1.649864 6.3566623 -1.3959192 13
1.8205009 7.0140991 -1.3653116 19
2.0650485 7.8603082 -1.3352246 20
2.3068793 8.7808037 -1.2759391 18
2.6494434 10.084723 -1.2193501 23
3.7179987 14.152025 -1.0231879 10
4.7154679 17.948748 -0.86542702 14
6.3242655 24.072403 -0.577856 7
11.552213 43.971828 0 35
1.3052859 4.9683824 -1.4730061 13
1.4104718 5.3687572 -1.4531568 9
1.5378954 5.8537769 -1.4340787 11
1.6702106 6.3574157 -1.3971667 13
1.8368114 6.9915576 -1.3619789 19
2.0793869 7.825901 -1.330361 23
2.3278294 8.7609291 -1.2739906 16
2.5250688 9.503252 -1.149892 100
2.7128201 10.209866 -0.98558354 9
3.511066 13.214112 -0.95608222 9
4.9302526 18.555309 -0.89533359 10
6.3632193 23.948368 -0.57530278 22
11.614862 43.713249 0 35
1.3235974 4.9814405 -1.4779676 12
1.4289356 5.3778872 -1.4567024 10
1.5407418 5.7986765 -1.4216286 10
1.6874537 6.3508363 -1.3967509 13
1.8674308 7.0281911 -1.3701257 19
2.0984969 7.8044505 -1.3277671 23
2.3496978 8.7386837 -1.2717639 16
2.5867803 9.620409 -1.1649916 76
2.5988348 9.6652403 -0.93374979 14
3.544039 13.180518 -0.95440811 9
4.773109 17.751513 -0.85722828 14
6.4477425 23.979588 -0.57650977 14
11.34047 42.175968 0 33
1.340867 4.9867744 -1.480724 11
1.4478993 5.3848348 -1.4597414 10
1.5508645 5.7677689 -1.4151729 10
1.7088284 6.3552475 -1.3988299 12
1.8760262 6.977067 -1.3612382 21
2.1245587 7.8035326 -1.3287398 22
2.3714147 8.7102375 -1.268702 16
2.7098751 9.9534082 -1.2063413 31
2.7207296 9.9932766 -0.96626198 7
3.5765166 13.136594 -0.95203638 9
4.8519421 17.821249 -0.86132771 14
6.5324941 23.99394 -0.57734537 14
11.436653 42.006981 0 33
1.3560207 4.9806824 -1.4801728 12
1.4648081 5.38026 -1.4597414 10
1.554661 5.7102909 -1.4022616 10
1.735465 6.3743863 -1.4042356 12
1.898451 6.9730358 -1.3616086 19
1.9132706 6.9508352 -1.1844525 3
2.3920484 8.6902151 -1.2667537 16
2.5120242 9.1260824 -1.1069162 10
2.5451593 9.2464619 -0.89473522 4
3.6258924 13.172722 -0.95538467 9
4.0045905 14.548517 -0.70368934 10
6.6397963 24.122114 -0.58087337 29
11.504015 41.793625 0 32
1.2692343 4.6110773 -1.4923526 12
1.369413 4.9750228 -1.4796213 11
1.4803394 5.3780136 -1.4602479 10
1.5835121 5.7528358 -1.4137896 10
1.747547 6.3487682 -1.3996617 12
1.9231308 6.9866571 -1.3653116 21
2.4135745 8.6678152 -1.2645268 18
2.5140486 9.0286465 -1.095998 20
2.5736537 9.2427053 -0.89510679 2
3.5686307 12.815943 -0.93027234 9
4.0584617 14.575062 -0.70555264 6
6.7392359 24.202467 -0.5832873 30
10.426231 37.443493 0 26
1.3888111 4.987606 -1.4845829 11
1.4947342 5.3680058 -1.4587283 10
1.6120605 5.7893567 -1.4239341 10
1.769002 6.3529773 -1.4017407 13
1.9496535 7.0017467 -1.369385 22
2.1845143 7.7664628 -1.3254975 17
2.4303582 8.6404953 -1.2614651 16
2.5511222 9.0698395 -1.1018056 15
2.5627933 9.1113338 -0.88303083 2
3.6183748 12.864175 -0.93445772 9
4.1030941 14.587466 -0.70667064 10
6.8069024 24.20014 -0.5836587 30
11.525518 40.975929 0 31
1.3976986 4.9691477 -1.4801728 12
1.5061624 5.3547621 -1.4561958 9
1.6214142 5.7645092 -1.4188619 10
1.7956915 6.3841062 -1.4096414 12
1.9940528 7.0893273 -1.3875299 19
2.2086303 7.7637424 -1.3261459 19
2.4494836 8.6103859 -1.2581248 16
2.5905259 9.1061754 -1.1071485 17
2.5849144 9.0864506 -0.8813588 4
4.1469088 14.577148 -0.7067638 10
6.9946675 24.587543 -0.59350008 30
1.3971822 4.9113526 -1.4641857 15
1.6358498 5.7503133 -1.4165562 10
1.8237273 6.410737 -1.4167104 15
2.0037868 7.0436797 -1.3797535 26
2.2338374 7.7647419 -1.3274429 17
2.4689958 8.5821447 -1.2550632 16
2.5942438 9.0175018 -0.87541372 7
3.5716419 12.414905 -0.90334636 4
4.7021699 16.34458 -0.7931295 4
7.0615044 24.545546 -0.59298939 30
1.4128107 4.910881 -1.4652883 15
1.4908386 5.1821036 -1.4116236 24
1.6281528 5.6594028 -1.3953449 10
1.7918977 6.2285743 -1.377623 26
2.0067441 6.9753733 -1.3675334 26
2.2598732 7.763371 -1.3284156 19
2.4915152 8.5591335 -1.2528365 18
2.7260499 9.3648329 -1.1406 100
2.608644 8.9615078 -0.87076908 7
3.6139703 12.415117 -0.90418345 6
4.4050617 15.132764 -0.7349934 7
7.1642833 24.611551 -0.59512484 31
13.177561 45.269039 0 38
1.4389774 4.943337 -1.4763138 13
1.5460452 5.3111486 -1.4480917 16
1.6453791 5.6523914 -1.3948836 10
1.7994262 6.1815915 -1.3684748 16
2.0171108 6.9294062 -1.3597571 29
2.2809894 7.7551365 -1.3280914 19
2.5092623 8.5312414 -1.2497746 18
2.6544528 9.0248747 -0.87764311 4
5.2032766 17.69062 -0.85993016 14
7.186728 24.434156 -0.59131825 30
11.11314 37.783566 0 27
1.4495229 4.9282327 -1.4730061 13
1.5450399 5.2529812 -1.4334033 18
1.6595114 5.6421733 -1.3935003 10
1.8161314 6.174665 -1.368059 16
2.0542026 6.9840837 -1.3716068 19
2.2874572 7.697659 -1.3193369 24
2.5296896 8.5128098 -1.2481045 19
3.5276668 11.871162 -1.15539 7
3.9378598 13.251528 -0.96668524 14
5.3590741 18.034142 -0.87735236 15
7.1552567 24.078583 -0.58319449 30
1.4605402 4.9149513 -1.4702497 14
1.5255318 5.1336584 -1.402 22
1.7063037 5.7419848 -1.419323 8
1.8322515 6.1658192 -1.3672274 16
2.0776155 6.991508 -1.3741989 19
2.5517464 8.5000219 -1.2472695 22
3.5459204 11.811675 -1.1505597 7
4.6747212 15.571779 -0.75819194 3
7.1517634 23.822956 -0.57748461 29
1.4831055 4.9403143 -1.4790701 12
1.5287371 5.0923162 -1.3918699 22
1.721774 5.7353334 -1.4188619 8
