# .PCD v0.7 - Point Cloud Data file format
VERSION 0.7
FIELDS x y z intensity
SIZE 4 4 4 4
TYPE F F F F
COUNT 1 1 1 1
WIDTH 1405
HEIGHT 1
VIEWPOINT 0 0 0 1 0 0 0
POINTS 1405
DATA ascii
-4.819128 8.1002254 -1.3246497 21
-5.2296591 8.790266 -1.1961199 5
-7.033483 11.822221 -1.2833952 12
-7.6425543 12.845979 -1.045231 22
-7.6702647 12.892555 -0.69958997 13
-8.1612616 13.717846 0 11
-2.441391 4.1036091 -1.4899696 15
-2.6186402 4.4015379 -1.4685959 13
-2.7273636 4.5842857 -1.3964285 16
-3.065706 5.1529884 -1.4207063 12
-3.3728106 5.6691847 -1.4021566 20
-3.3875368 5.6939373 -1.2482954 9
-4.0169096 6.8003435 -1.2976128 12
-4.79668 8.1204395 -1.3254846 24
-6.9294662 11.731096 -1.2711334 21
-7.6589861 12.966121 -1.0530437 38
-7.6114368 12.885624 -0.69791293 3
-8.1089735 13.727918 0 11
-2.4304302 4.1145458 -1.491161 14
-2.6008892 4.4031215 -1.4663908 14
-2.709013 4.5861669 -1.3944024 16
-3.0514832 5.1659451 -1.4216286 12
-3.3559797 5.6814361 -1.4025724 16
-3.3696332 5.7045507 -1.2482954 8
-4.3007946 7.3275981 -1.1941054 3
-5.7233996 9.7514 -1.3222597 28
-6.866436 11.69888 -1.2655598 27
-7.6075954 12.961651 -1.050951 19
-7.6451974 13.025717 -0.70434147 13
-8.2080965 13.984773 -0.37647912 13
-8.2173948 14.000615 0 4
-2.5895548 4.4120259 -1.4669421 13
-2.6912973 4.585372 -1.3918699 15
-3.0488646 5.1945872 -1.4271619 14
-3.355943 5.7177811 -1.4092256 17
-4.0126691 6.8806357 -1.3086369 26
-4.7532468 8.1505251 -1.3260415 7
-5.6671262 9.7175798 -1.3155228 23
-6.8227067 11.699086 -1.2635162 24
-7.7020345 13.206894 -1.0690877 44
-8.0974979 13.885006 -0.37318319 13
-8.5661745 14.68866 0 4
-2.5743194 4.4142575 -1.4652883 14
-2.6755586 4.5878553 -1.3903505 17
-3.0559163 5.2400656 -1.4373065 18
-3.3468628 5.7389593 -1.4121363 17
-3.4496043 5.915133 -1.2901399 13
-4.7395272 8.1859837 -1.3293815 12
-5.6385627 9.7387733 -1.3159876 55
-6.7819309 11.713568 -1.262773 24
-7.547545 13.035915 -1.0533228 52
-7.5387421 13.020712 -0.70163959 13
-7.9376254 13.709652 -0.36779827 13
-11.459195 19.792013 0 9
-2.55755 4.4173312 -1.4636345 13
-2.6659803 4.6046095 -1.3928831 15
-3.0550423 5.2765865 -1.4446845 15
-3.3121543 5.7206635 -1.4050673 20
-3.718564 6.4226031 -1.3982687 22
-4.0162854 6.9788966 -1.3229036 22
-4.1905537 7.2817135 -1.1807446 6
-5.6150255 9.7569466 -1.3164521 23
-6.7512379 11.731285 -1.262773 24
-7.5362754 13.095406 -1.0565315 57
-7.9146671 13.752917 -0.36840177 6
-8.2948828 14.413599 0 4
-2.5450161 4.4223461 -1.4630831 13
-2.65681 4.6166048 -1.3944024 16
-3.0383039 5.2795072 -1.4433011 18
-3.2932615 5.7225342 -1.4034041 22
-4.0227332 7.041173 -1.3323065 22
-5.1182461 8.9586992 -1.2065735 10
-6.7331209 11.785289 -1.2663029 45
-7.7266932 13.524384 -1.0891776 40
-7.6063333 13.313712 -0.71505564 13
-8.3150434 14.5542 0 9
-2.5292039 4.426981 -1.4619807 12
-2.6422944 4.624928 -1.3944024 16
-3.0188076 5.2839565 -1.4419178 15
-3.2733274 5.729454 -1.4025724 20
-3.6844354 6.4490347 -1.3993796 9
-3.9981813 7.0437984 -1.3306853 24
-4.6175275 8.1349316 -1.3146292 27
-5.0932059 8.9729576 -1.2065735 10
-6.6775713 11.764215 -1.2620299 30
-7.5076752 13.226651 -1.0635072 22
-7.732831 13.623319 -0.73052138 14
-7.7450709 13.644883 -0.36427024 9
-10.518443 18.530872 0 8
-8.1981096 14.443024 0.38557777 6
-2.5215752 4.4423866 -1.4647369 13
-2.6331878 4.63902 -1.3964285 16
-3.00596 5.2957516 -1.44284 15
-3.251519 5.7283654 -1.4000775 16
-3.6712606 6.4678454 -1.4012312 9
-3.9717109 7.042902 -1.3284156 23
-4.138525 7.3387074 -1.1840848 12
-5.7111602 10.127408 -1.3596601 13
-6.6407828 11.775877 -1.2612869 21
-7.4775729 13.259729 -1.0644839 22
-7.7467709 13.737089 -0.73545921 35
-7.9829235 14.15585 -0.37731472 14
-8.2915888 14.703197 0 4
-2.512938 4.4561086 -1.4669421 11
-2.6164219 4.6396132 -1.3944024 18
-2.9930725 5.3075147 -1.4437622 18
-3.227823 5.7237902 -1.3967509 15
-3.6676674 6.5037513 -1.4067857 9
-3.9351068 7.0295129 -1.323552 23
-4.1454411 7.4052458 -1.1927136 4
-5.5881076 9.9823656 -1.3378239 21
-6.6008387 11.791467 -1.2607294 21
-7.499228 13.396313 -1.0735521 85
-7.6297855 13.629536 -0.36264548 6
-11.782853 21.048405 0 11
-2.5008056 4.4673362 -1.4680446 11
-2.6008892 4.646122 -1.393896 18
-2.9716318 5.3084006 -1.4414567 15
-3.1935813 5.7048826 -1.3896819 15
-3.6308973 6.4860859 -1.4004905 13
-3.9291646 7.0622096 -1.3277671 23
-5.0607138 9.096035 -1.2172594 2
-6.5592985 11.789564 -1.2586858 30
-7.3952637 13.292113 -1.0636468 22
-7.5635977 13.594674 -0.72549033 14
-7.7758641 13.976197 -0.37132633 13
-7.83144 14.076089 0 8
-2.4909718 4.4772277 -1.4691472 11
-2.5981245 4.6698222 -1.3989609 20
-2.9435325 5.2906523 -1.4345398 18
-3.1729293 5.7029662 -1.387187 16
-3.9186897 7.0928402 -1.3313339 24
-4.0714531 7.3693428 -1.1832498 9
-6.5425825 11.842094 -1.2622157 24
-7.3895574 13.375121 -1.0685297 41
-7.7290087 13.989529 -0.74533486 18
-7.8677907 14.240726 -0.37773249 14
-7.7886691 14.097514 0 4
-2.4804647 4.4896483 -1.4708011 11
-2.6160681 4.7350912 -1.4161822 18
-2.9221737 5.2891431 -1.4317732 17
-3.1569388 5.7140689 -1.3876027 20
-3.4016731 6.1570387 -1.3253188 22
-4.0267048 7.3397179 -1.1765695 9
-5.473865 9.9775438 -1.3308548 15
-6.5275283 11.89812 -1.2661172 24
-7.3143291 13.332269 -1.0633677 57
-7.7480021 14.122751 -0.75120443 25
-7.7572165 14.139546 -0.37443656 13
-7.6708059 13.98204 0 3
-2.3012803 4.1946821 -1.4929483 14
-2.4662063 4.4953032 -1.4702497 12
-2.6122425 4.7614923 -1.4217536 18
-2.8971052 5.2807283 -1.4271619 17
-3.1333823 5.7114053 -1.384692 18
-3.5034466 6.3859434 -1.3723474 26
-5.4301453 9.9720106 -1.3278348 13
-6.4596448 11.862602 -1.2601721 39
-7.2208881 13.260562 -1.0558339 19
-7.7446814 14.222466 -0.75521052 21
-7.6630383 14.072534 -0.37202263 10
-7.6335406 14.018364 0 3
-2.2899182 4.2052445 -1.4941398 14
-2.4511535 4.5013399 -1.4696984 12
-2.6018982 4.7781701 -1.4242861 18
-2.8805022 5.289803 -1.4271619 17
-3.1238453 5.7366829 -1.3884344 17
-3.4476516 6.331326 -1.3582759 42
-3.8563397 7.1291747 -1.3316581 20
-5.4003882 9.9836407 -1.3273703 13
-6.4217582 11.871837 -1.2592432 45
-7.3831716 13.649192 -1.0851318 14
-7.2657957 13.4322 -0.7121675 10
-8.5588398 15.822638 -0.41765508 17
-11.026628 20.384809 0 10
-2.274533 4.2049055 -1.4917568 14
-2.4422331 4.5149307 -1.4719036 12
-2.5894663 4.7871189 -1.4247926 16
-2.8694236 5.3046732 -1.4290065 17
-3.1031604 5.7367802 -1.3863553 20
-3.4944808 6.4602098 -1.3838269 19
-3.8582211 7.1774888 -1.3387914 20
-4.3979616 8.1815739 -1.3054438 33
-5.3779969 10.004744 -1.3282995 10
-7.2123318 13.417176 -1.0651814 19
-8.0307913 14.939764 -0.39379439 11
-11.005423 20.473503 0 30
-2.2653253 4.2142081 -1.4929483 14
-2.4304056 4.5213089 -1.4719036 13
-2.5824223 4.8041072 -1.4278316 16
-2.8619773 5.3241658 -1.4322343 13
-3.0825741 5.7345448 -1.3838603 21
-3.4654598 6.4468307 -1.3790129 17
-4.3666406 8.1848669 -1.3037736 19
-5.3456016 10.019839 -1.3280672 13
-6.3917041 11.980662 -1.2668604 27
-7.2725043 13.631641 -1.0803883 69
-7.6857743 14.406278 -0.76145273 67
-7.9781642 14.954336 -0.39351583 7
-9.7576933 18.2899 0 7
-2.2484791 4.2145672 -1.4905653 14
-2.416188 4.5289226 -1.4719036 13
-2.5764225 4.8292675 -1.4328967 18
-2.8525634 5.346868 -1.4359232 13
-3.0608585 5.737298 -1.382197 15
-3.4072568 6.38659 -1.3638304 24
-3.8112707 7.1891298 -1.3368459 23
-4.3507657 8.206769 -1.3054438 18
-5.2979527 9.9934301 -1.3227242 13
-6.3649831 12.00615 -1.2677892 27
-7.1910033 13.564258 -1.0735521 16
-7.7902722 14.694648 -0.77561414 19
-9.7736578 18.435871 -0.48445576 11
-9.7041588 18.304777 0 7
-2.2410152 4.2271857 -1.4929483 13
-2.4034233 4.5335336 -1.4713523 13
-2.551084 4.8120632 -1.4258056 18
-2.845849 5.3680725 -1.4396123 13
-3.0614061 5.7746739 -1.389266 22
-3.3656704 6.3486023 -1.3538322 71
-3.8027933 7.2248549 -1.3413852 23
-4.3061032 8.1810846 -1.2993202 27
-5.259953 9.9932852 -1.3206335 13
-6.2996535 11.968593 -1.2618442 39
-7.3217134 13.910385 -1.0992225 23
-7.1250477 13.536744 -0.71337867 10
-8.4262905 16.008949 -0.42002258 13
-11.338688 21.542158 0 33
-2.3881712 4.5372415 -1.4702497 12
-2.5431042 4.8315954 -1.4293511 18
-2.8389742 5.3937135 -1.4442234 13
-3.0816183 5.8547087 -1.4063148 15
-3.4539256 6.562048 -1.3971578 22
-3.7745929 7.2262721 -1.3394397 23
-6.2426572 11.95126 -1.2579427 27
-7.962152 15.243148 -0.39927214 3
-11.301506 21.636177 0 11
-11.539149 22.091133 0.57864517 12
-2.372124 4.5413146 -1.4691472 13
-2.5198493 4.8241272 -1.4247926 18
-2.82742 5.4129562 -1.4469901 11
-3.0559623 5.8504891 -1.4029882 13
-3.3504846 6.4143376 -1.3634601 56
-3.7492986 7.2238665 -1.3371701 23
-4.2826328 8.2514544 -1.3065572 34
-5.0906658 9.8083124 -1.2922927 100
-6.2168536 11.978166 -1.2590574 33
-7.6755462 14.788666 -0.77701163 15
-7.7739267 14.978217 -0.39179826 3
-11.235614 21.647936 0 11
-2.3593419 4.5458021 -1.4685959 12
-2.5187988 4.8530321 -1.4313772 16
-2.823998 5.4410667 -1.4525235 11
-3.0370314 5.8515239 -1.4013249 15
-3.3861947 6.5242653 -1.3849378 21
-3.743577 7.2623773 -1.342358 26
-4.2514048 8.2475405 -1.3040521 34
-5.1387973 9.9690437 -1.3115737 28
-6.1915879 12.011412 -1.2607294 27
-7.1032982 13.780089 -0.72297484 3
-7.9821663 15.485056 -0.40447134 4
-11.218181 21.762783 0 34
-11.240809 21.806683 0.56959295 12
-2.346637 4.5523739 -1.4685959 12
-2.5078948 4.8652067 -1.4328967 16
-2.8114662 5.4541221 -1.4539069 11
-3.0188849 5.8565054 -1.4004933 15
-3.3508503 6.5005045 -1.377902 24
-3.7477064 7.3268123 -1.3520851 20
-4.1388907 8.0915823 -1.2773309 60
-5.1183105 10.006359 -1.3143615 23
-6.1347814 11.993573 -1.256828 24
-7.1122136 13.904465 -1.0921074 60
-7.1036448 13.887712 -0.72744685 3
-7.8661017 15.378325 -0.40103611 4
-11.193478 21.883387 0 11
-11.173162 21.843668 0.56963938 12
-11.162221 21.822279 1.1430643 13
-2.3261962 4.5477419 -1.4647369 13
-2.4899557 4.8678942 -1.4313772 16
-2.7960913 5.466393 -1.4548291 11
-2.9977999 5.8607354 -1.3992459 15
-3.318778 6.4882517 -1.373088 19
-3.749578 7.3812361 -1.3601912 23
-4.0203023 7.9141703 -1.2475479 33
-5.1047435 10.048948 -1.3180782 18
-6.1003652 12.008881 -1.2566422 24
-7.1104064 13.997198 -1.0978274 20
-7.1290789 14.033957 -0.73406172 7
-9.415103 18.534113 -0.4826453 5
-10.981057 21.616774 0 33
-2.2969444 4.5216522 -1.4542627 15
-2.4781053 4.8782773 -1.4323901 16
-2.7790532 5.4707084 -1.4539069 11
-2.9849668 5.87606 -1.4009091 15
-3.3059883 6.508007 -1.3753098 19
-3.7267706 7.3905687 -1.359867 22
-4.1064849 8.1435814 -1.2817843 25
-5.0283928 9.9718189 -1.3059986 34
-6.0422883 11.982477 -1.2519976 28
-7.009552 13.900661 -1.0886196 51
-7.2205358 14.319063 -0.74785042 18
-9.3807707 18.603031 -0.48371297 11
-10.915064 21.645693 0 11
-11.025558 21.864811 0.56852525 12
-2.2748609 4.5112824 -1.44875 15
-2.4644902 4.8873372 -1.4328967 16
-2.7619314 5.4771934 -1.4534458 9
-2.9719214 5.8936248 -1.4029882 15
-3.2972813 6.538847 -1.3797535 21
-3.6972818 7.3832989 -1.3566245 22
-5.9981055 11.977936 -1.2497681 28
-6.6017609 13.183407 -1.0310007 23
-8.4353018 16.844904 -0.43738428 4
-10.699655 21.366711 0 10
-2.2605333 4.5141792 -1.4476475 16
-2.4499669 4.8924694 -1.4323901 16
-2.7466264 5.4848843 -1.4534458 9
-2.9545767 5.9001517 -1.4025724 15
-3.2816498 6.5533013 -1.3808644 21
-3.664345 7.3688574 -1.3520851 20
-3.8325374 7.7070861 -1.2096927 24
-4.7868767 9.6262255 -1.2572153 31
-5.9513297 11.967896 -1.2469815 23
-6.4840755 13.039227 -1.0183049 18
-7.3824067 14.845737 -0.77319181 15
-7.7498932 15.584738 -0.4041 4
-10.681793 21.480677 0 21
-2.247061 4.5187535 -1.4470962 16
-2.4483545 4.9235473 -1.4394813 16
-2.7304308 5.4907918 -1.4529847 9
-2.9398293 5.9118843 -1.4034041 16
-3.26421 6.5642009 -1.3812348 19
-3.6324465 7.3626332 -1.3488429 20
-3.8012974 7.7048779 -1.2074659 24
-4.7812223 9.6910954 -1.2637197 49
-5.9013696 11.96153 -1.2443805 23
-6.4033594 12.979016 -1.0120269 5
-7.3383856 14.874228 -0.77347124 15
-8.0441408 16.304729 -0.42211154 8
-2.2345557 4.5292377 -1.4481987 15
-2.439724 4.9450946 -1.4435333 16
-2.7140296 5.5010867 -1.4534458 9
-2.9394197 5.957932 -1.4121363 15
-3.2557473 6.5990982 -1.3864189 19
-3.6014545 7.35148 -1.3449519 22
-3.7501431 7.6549911 -1.1980022 34
-4.7908473 9.7793322 -1.2734764 100
-5.84692 11.935043 -1.2399217 25
-7.2783656 14.856986 -0.77151477 23
-7.6141782 15.542464 -0.40182531 4
-7.2924342 14.885704 0 4
-2.2210543 4.5337338 -1.4476475 15
-2.4267571 4.9536252 -1.4440397 15
-2.6978018 5.5068965 -1.4529847 9
-2.921911 5.9643598 -1.4117205 12
-3.2416308 6.6169891 -1.3882705 17
-3.5951614 7.3940806 -1.3507884 20
-3.8010283 7.8174815 -1.2216617 82
-4.9094791 10.097205 -1.3129677 28
-5.8201923 11.970246 -1.2417796 51
-6.6146564 13.604202 -1.0577872 71
-7.2657046 14.943196 -0.77486879 15
-7.2253017 14.860101 -0.38362804 14
-8.0965481 16.651972 0 5
-23.241798 47.800835 1.2340252 39
-2.2126374 4.5506773 -1.4509552 15
-2.4120495 4.960803 -1.4440397 15
-2.6737928 5.4991241 -1.4488345 9
-2.9024918 5.9694839 -1.4108888 15
-3.2228444 6.628345 -1.3886409 15
-3.5732048 7.404716 -1.3507884 20
-3.9766467 8.2407646 -1.2859596 57
-4.8371925 10.024065 -1.3015847 42
-5.6686764 11.747141 -1.2168845 86
-6.5335059 13.539318 -1.0512301 22
-7.2117796 14.944899 -0.773844 19
-7.2046375 14.930098 -0.38488144 14
-7.1918025 14.9035 0 4
-2.2033019 4.5658803 -1.4537115 15
-2.3947961 4.9627118 -1.4425201 13
-2.6633837 5.5193033 -1.4520624 9
-2.887316 5.983356 -1.4121363 16
-3.200599 6.6325688 -1.3875299 19
-3.5678632 7.4467001 -1.3566245 23
-3.9767258 8.3000612 -1.2934749 76
-4.8392248 10.100235 -1.3097154 31
-5.6625257 11.818596 -1.2226437 43
-6.5534325 13.67806 -1.0605774 30
-7.1700206 14.964977 -0.773844 19
-7.1793342 14.984416 -0.38576344 14
-10.24908 21.391466 0 10
-2.1888826 4.5685472 -1.4526091 16
-2.380929 4.9693794 -1.4425201 13
-2.6538477 5.5390038 -1.4552902 9
-2.8621442 5.973752 -1.4079781 16
-3.1803677 6.6379352 -1.3867893 19
-3.566937 7.5018139 -1.3647306 22
-3.6926885 7.7662883 -1.2085793 22
-4.719667 9.9261808 -1.2853237 100
-5.636837 11.855129 -1.2246875 34
-6.6276174 13.938891 -1.0792722 19
-7.1032772 14.939279 -0.77142167 15
-7.0987778 14.929814 -0.38381374 14
-8.0342236 16.897202 0 6
-2.0495751 4.3105698 -1.4893737 14
-2.173665 4.5715499 -1.4515064 18
-2.3711574 4.9869065 -1.4455593 15
-2.6407425 5.553885 -1.4571346 9
-2.8444052 5.9822192 -1.4079781 16
-3.1631882 6.6526685 -1.3879002 19
-3.5506577 7.5182638 -1.3660276 23
-3.8110518 8.0696297 -1.254228 100
-4.732688 10.021129 -1.2960097 47
-5.587925 11.832031 -1.2207859 31
-6.3789558 13.506983 -1.0445335 10
-7.0453749 14.918077 -0.76937193 15
-7.0699167 14.970042 -0.3843708 14
-8.661273 18.339626 0 7
-2.0456216 4.3314571 -1.4947355 13
-2.16169 4.5772243 -1.4515064 18
-2.3514848 4.9791007 -1.4415072 13
-2.6237011 5.5554996 -1.4557513 9
-2.8345833 6.002027 -1.4108888 16
-3.1583517 6.6875839 -1.3934548 18
-3.5161388 7.5061469 -1.3618125 22
-4.647254 9.9208174 -1.2811424 87
-5.3623533 11.44739 -1.1793561 90
-6.3644223 13.586576 -1.0491374 49
-7.0052567 14.954611 -0.77011734 19
-7.0143728 14.974072 -0.38390657 14
-9.5410995 20.368052 0 9
-2.0344343 4.343049 -1.4965228 13
-2.1440384 4.5770283 -1.4493014 22
-2.3391147 4.9934711 -1.4435333 15
-2.6037595 5.5584269 -1.4543679 9
-2.8123949 6.0038157 -1.4092256 16
-3.1406627 6.7045918 -1.394936 20
-3.4851754 7.4944634 -1.3579216 24
-3.8967195 8.3794403 -1.2987635 30
-4.7150183 10.139097 -1.3076246 39
-5.4479184 11.715113 -1.2053659 71
-6.9322934 14.907089 -0.76667011 18
-7.0087795 15.071564 -0.38590273 14
-7.560524 16.258024 0 16
-2.0166616 4.336596 -1.4923526 13
-2.1644845 4.6544719 -1.4719036 14
-2.3210804 4.9912128 -1.4410007 13
-2.5915082 5.5727363 -1.4562125 9
-2.7956164 6.0116467 -1.4092256 16
-3.1194394 6.7079906 -1.3938251 20
-3.4599624 7.5017915 -1.3572731 23
-3.7957234 8.2297783 -1.2737123 37
-4.629066 10.036609 -1.2925251 47
-5.436944 11.788227 -1.2111253 40
-6.7942276 14.73105 -0.75651497 39
-6.9898705 15.155237 -0.38748103 14
-10.482187 22.727179 0 11
-2.0038283 4.3446431 -1.4929483 12
-2.1603198 4.6839433 -1.4790701 18
-2.3045793 4.9967227 -1.4404942 13
-2.5707288 5.5737805 -1.4543679 9
-2.7660663 5.9973059 -1.4038199 15
-3.0975285 6.7159724 -1.3934548 20
-3.4386642 7.5072355 -1.3566245 23
-3.669416 8.0110092 -1.2383624 84
-4.5564456 9.9475584 -1.2795162 65
-5.4010849 11.79156 -1.2100105 25
-5.6290078 12.289158 -0.9452002 9
-6.6965637 14.619828 -0.7499001 18
-6.9992914 15.280739 -0.3902199 15
-7.0353265 15.359409 0 4
-1.9908557 4.3464036 -1.4917568 13
-2.1528521 4.7000718 -1.4823778 18
-2.2930999 5.006258 -1.4415072 13
-2.553695 5.5751848 -1.4529847 9
-2.7527981 6.0098639 -1.4050673 15
-3.0832071 6.7312074 -1.394936 18
-3.4155598 7.5156078 -1.3563004 23
-3.6825063 8.1029978 -1.250888 100
-4.5458159 10.002627 -1.2848591 65
-5.3479505 11.767647 -1.2059232 30
-6.4592605 14.212976 -1.0916888 11
-6.6267076 14.581428 -0.74691874 18
-6.9373803 15.265033 -0.3892915 15
-6.9301472 15.249117 0 18
-1.974792 4.3453383 -1.4893737 13
-2.1325347 4.6924357 -1.4779676 16
-2.2798378 5.016562 -1.4425201 13
-2.5355325 5.5791931 -1.4520624 9
-2.7357647 6.0197849 -1.4054831 15
-3.0681021 6.751061 -1.3971578 16
-3.3189538 7.364368 -1.3271188 72
-3.6309929 8.0567455 -1.2419809 46
-4.5004959 9.9860697 -1.28091 47
-5.243865 11.635519 -1.190689 77
-6.3932662 14.185905 -1.0880615 11
-6.5669136 14.571208 -0.74533486 21
-6.8787122 15.263052 -0.388688 15
-6.7926383 15.072064 0 4
-2.1162033 4.6956062 -1.4768651 16
-2.2624776 5.0201712 -1.4415072 13
-2.5067987 5.5622911 -1.4456067 9
-2.7184484 6.0319166 -1.4063148 15
-3.0404184 6.7463303 -1.3941953 22
-3.3082087 7.3886662 -1.3300369 61
-3.822536 8.5373821 -1.3146292 33
-4.4598479 9.9607763 -1.276264 31
-5.2731972 11.777339 -1.2038796 22
-5.4340277 12.136542 -0.9298538 9
-6.5255775 14.574448 -0.74468273 21
-6.8446674 15.287114 -0.3888737 15
-6.8849254 15.377028 0 4
-2.1023674 4.6954989 -1.4752113 16
-2.2486234 5.0221524 -1.4404942 13
-2.4924057 5.5666237 -1.4451456 9
-2.7068999 6.0456829 -1.4079781 16
-2.995012 6.6891618 -1.3808644 26
-3.2705634 7.3665562 -1.3242005 72
-3.8165889 8.5964136 -1.3218662 25
-4.4172459 9.9493217 -1.2730118 26
-5.203846 11.721046 -1.1964483 19
-5.3748202 12.106145 -0.9262265 9
-6.4765115 14.587574 -0.74431008 21
-6.7990379 15.314026 -0.38901293 15
-6.8982568 15.537505 0 9
-1.9383466 4.3658957 -1.4905653 13
-2.0907247 4.7091098 -1.4774163 18
-2.2289081 5.0203509 -1.4379617 13
-2.4709554 5.5655336 -1.44284 9
-2.6942425 6.0684614 -1.4113046 17
-2.9739807 6.6985388 -1.3808644 19
-3.1850557 7.2317362 -1.2982612 24
-3.7088442 8.4210091 -1.2931966 69
-4.3805017 9.9460211 -1.270921 18
-5.1385479 11.667181 -1.1893885 30
-5.315558 12.069086 -0.92218053 20
-6.4340091 14.608553 -0.74440324 18
-6.7608261 15.350597 -0.38943073 15
-6.8408427 15.532278 0 4
-2.0736446 4.7082539 -1.4752113 18
-2.2108841 5.0198588 -1.4359356 13
-2.4567852 5.5781827 -1.4442234 9
-2.6888428 6.1050739 -1.4179578 23
-2.9390426 6.6731577 -1.3738286 17
-3.2119763 7.3449254 -1.3170671 56
-3.6756773 8.4052849 -1.2892997 30
-4.3584294 9.9665546 -1.2720826 21
-5.0792637 11.614909 -1.1827002 22
-5.2975345 12.114036 -0.92455232 18
-6.3949437 14.623515 -0.74431008 14
-6.7182145 15.362749 -0.3892915 15
-6.8153839 15.584949 0 14
-2.0582311 4.7066207 -1.4730061 16
-2.2008362 5.0327201 -1.4379617 15
-2.4390552 5.5774627 -1.442379 9
-2.6587427 6.0798287 -1.4104731 23
-2.906601 6.6466141 -1.3667929 19
-3.2045846 7.3911943 -1.323552 30
-3.688642 8.5076456 -1.3032171 31
-4.3357863 10.000247 -1.2746379 21
-5.0086846 11.552249 -1.1747116 19
-5.2443686 12.095841 -0.92190158 40
-6.3473778 14.63987 -0.74412376 21
-6.6826391 15.413131 -0.39003423 15
-6.7743402 15.624635 0 4
-1.8994145 4.3808928 -1.4899696 13
-2.0434334 4.7130642 -1.4730061 15
-2.181165 5.0307345 -1.4354292 15
-2.4207454 5.583313 -1.4419178 9
-2.6785369 6.1778951 -1.4312642 15
-2.8896127 6.6647291 -1.3686444 19
-3.1815894 7.3946762 -1.3225793 30
-3.6758261 8.5433846 -1.3071139 25
-4.3054848 10.006843 -1.2739409 18
-4.9724665 11.557047 -1.1737826 13
-5.2082005 12.104942 -0.92148304 27
-6.3214679 14.692408 -0.7458939 14
-6.6695962 15.50153 -0.39179826 15
-7.7345476 17.9767 0 6
-1.8901902 4.3931956 -1.4923526 14
-2.0302625 4.7187529 -1.4730061 15
-2.1403425 4.9746013 -1.4177015 16
-2.4051425 5.5900521 -1.4419178 11
-2.6489017 6.156599 -1.424611 15
-2.8748717 6.6818008 -1.3704959 21
-3.1508546 7.3799367 -1.318364 24
-3.6542885 8.5590801 -1.3079489 22
-4.2619252 9.9822884 -1.2692949 21
-4.2786703 10.021509 -1.0166094 10
-5.208849 12.200174 -0.92762154 36
-6.3141499 14.789011 -0.7499001 29
-6.6686792 15.619391 -0.39430502 15
-7.5131211 17.597244 0 6
-1.8749168 4.3914332 -1.4899696 14
-2.0185878 4.7279396 -1.4741086 15
-2.1142881 4.9520888 -1.4095976 16
-2.395637 5.6110649 -1.4456067 11
-2.6194096 6.1351852 -1.4179578 15
-2.8569746 6.6916103 -1.3708662 24
-3.1397195 7.4146957 -1.3229036 22
-3.6396906 8.595418 -1.3118458 24
-4.218348 9.9619627 -1.2651135 26
-4.2605667 10.061666 -1.0193962 2
-5.1609602 12.188016 -0.92552888 13
-6.3177638 14.9199 -0.75558329 18
-6.6301064 15.657522 -0.39476925 15
-6.7449718 15.928785 0 9
-1.8648577 4.4040089 -1.4923526 13
-2.0083001 4.7427592 -1.4768651 15
-2.1010954 4.9619031 -1.4106106 16
-2.3820145 5.6253161 -1.4474512 11
-2.6011958 6.1429296 -1.4179578 13
-2.841707 6.710916 -1.373088 24
-3.1263373 7.4481797 -1.3271188 24
-3.6126668 8.6068106 -1.3118458 24
-4.1862593 9.9733353 -1.2648811 26
-4.8547564 11.565962 -1.1702527 13
-5.2376966 12.478277 -0.94631636 7
-6.2816811 14.965465 -0.75688761 18
-6.5623064 15.634026 -0.39365512 33
-7.0021963 16.682018 0 5
-18.981163 45.220684 1.1386288 29
-1.8487947 4.4045649 -1.4905653 13
-1.9963652 4.7561364 -1.4790701 14
-2.0892394 4.9773998 -1.4131432 18
-2.3665884 5.6381555 -1.4488345 11
-2.5796111 6.1456604 -1.4167104 12
-2.830497 6.7433701 -1.377902 24
-3.1271138 7.5013351 -1.3352246 45
-3.5969615 8.6284075 -1.3137941 24
-4.2054467 10.088045 -1.2781224 26
-5.1987481 12.47078 -0.94478166 9
-6.2604718 15.017649 -0.75875092 22
-6.3909907 15.330737 -0.38562417 14
-10.836907 25.995623 0 15
-18.84446 45.204178 1.1370505 29
-1.9839989 4.7592258 -1.4785188 14
-2.0815389 4.9932051 -1.4161822 16
-2.3498104 5.6367359 -1.4469901 11
-2.5691042 6.1627789 -1.4192053 12
-2.8072062 6.7339392 -1.3745692 26
-3.134434 7.5859056 -1.3485186 26
-3.5758889 8.6543074 -1.316021 27
-4.163115 10.075503 -1.2748702 23
-4.7680354 11.539521 -1.164865 24
-5.1214519 12.394855 -0.93780601 11
-6.2353897 15.090788 -0.76145273 15
-6.3237109 15.304541 -0.38446364 14
-11.542623 27.935265 0 17
-1.9683043 4.763658 -1.4779676 14
-2.0732315 5.0176005 -1.4212471 18
-2.3283758 5.6350965 -1.4446845 9
-2.5504789 6.172627 -1.4196212 12
-2.7890406 6.74999 -1.3760505 26
-3.1027589 7.5690627 -1.3439791 24
-3.5547142 8.6715899 -1.3171344 24
-4.1342111 10.085251 -1.2746379 23
-4.7357945 11.552791 -1.164865 30
-5.1140642 12.475565 -0.94282854 16
-6.1894369 15.098897 -0.76098692 15
-6.2680578 15.290689 -0.38367447 18
-6.9866142 17.043581 0 5
-18.442423 44.98959 1.1288803 30
-1.9528073 4.7637992 -1.4763138 14
-2.065083 5.0376921 -1.4252992 18
-2.3126314 5.6415768 -1.4446845 11
-2.5332327 6.1797252 -1.4196212 12
-2.7850907 6.7941227 -1.3834565 21
-3.0884597 7.5983477 -1.3475459 24
-3.5192716 8.6582479 -1.3135159 25
-4.0937939 10.07171 -1.2713856 21
-4.7232375 11.620291 -1.1702527 19
-5.0822806 12.503623 -0.9438051 16
-6.128056 15.07648 -0.7589373 15
-6.2234106 15.311074 -0.3837209 18
-6.8478971 16.84746 0 5
-1.9393865 4.7713532 -1.4768651 14
-2.0566823 5.0599294 -1.4298577 18
-2.2929494 5.6412024 -1.44284 11
-2.5075176 6.1690912 -1.4154629 12
-2.7612176 6.7932534 -1.381605 24
-3.0740178 7.6276131 -1.3511125 22
-3.4861648 8.650281 -1.3107324 25
-4.0601821 10.0746 -1.2702241 18
-4.6999063 11.661958 -1.1730394 22
-5.1227221 12.711099 -0.95831448 9
-6.0661225 15.051974 -0.75679439 14
-6.1667457 15.301652 -0.38302457 18
-6.8225536 16.928919 0 5
-1.9245036 4.7753038 -1.4763138 14
-2.0467238 5.0785708 -1.4334033 18
-2.2652907 5.6209049 -1.4359232 13
-2.4884725 6.1746893 -1.415047 11
-2.7212145 6.7521968 -1.3716068 26
-3.0418508 7.6128764 -1.3468974 20
-3.4531324 8.6421957 -1.3079489 27
-4.0346918 10.097672 -1.271618 18
-4.6734076 11.696194 -1.175083 24
-4.9754195 12.452043 -0.93766648 31
-6.0080886 15.036515 -0.75511742 18
-6.1279902 15.336595 -0.38344234 18
-6.760416 16.919374 0 16
-1.9110382 4.7827783 -1.4768651 14
-2.0381057 5.1007919 -1.4379617 16
-2.2319932 5.5860362 -1.4253175 10
-2.4686873 6.1784134 -1.4142154 11
-2.7040834 6.7675419 -1.373088 19
-3.0088165 7.587791 -1.341061 23
-3.4246564 8.6364775 -1.3057221 30
-4.0060472 10.102659 -1.270921 18
-4.6310287 11.67877 -1.1721106 27
-5.7775154 14.57004 -1.0960138 8
-5.9635501 15.039192 -0.75446528 18
-6.0929799 15.365595 -0.38376731 18
-6.7330565 16.979774 0 22
-18.02614 45.459263 1.1353794 29
-1.8928419 4.7734675 -1.4724549 14
-2.0325909 5.1258941 -1.4435333 18
-2.2152102 5.5864329 -1.4239341 10
-2.4525049 6.184855 -1.4142154 11
-2.6762152 6.7490191 -1.3679038 17
-2.9806352 7.586184 -1.3391155 23
-3.4105456 8.6803732 -1.3107324 30
-3.9771969 10.12259 -1.2718502 18
-4.5957747 11.696968 -1.1724821 44
-5.1203141 13.032002 -0.97910184 7
-5.9082403 15.037398 -0.75344044 14
-6.0571108 15.416297 -0.38455647 21
-6.6760263 16.991535 0 16
-1.8792433 4.782969 -1.4735574 14
-2.0207238 5.1430588 -1.4465723 16
-2.1876869 5.568006 -1.4174784 12
-2.433779 6.1943493 -1.4146312 11
-2.6485322 6.7409296 -1.364571 19
-2.9565704 7.5871234 -1.3378186 23
-3.388447 8.6954012 -1.3115674 31
-3.9618928 10.166972 -1.2760316 21
-4.5855036 11.767276 -1.1782415 33
-5.0737557 13.020225 -0.97714865 10
-5.8662205 15.05384 -0.75344044 14
-6.0212917 15.451782 -0.3850207 18
-6.6125703 16.969116 0 16
-1.8679721 4.7935724 -1.4752113 14
-2.0119722 5.1631041 -1.4506242 18
-2.18626 5.6103601 -1.4267008 10
-2.4150491 6.1974759 -1.4137996 11
-2.6389725 6.7721066 -1.369385 21
-2.9325273 7.587986 -1.3365216 23
-3.365581 8.7085228 -1.3121241 27
-3.9406488 10.196526 -1.2783546 26
-4.5346808 11.733598 -1.1735969 24
-4.9237432 12.740306 -0.9551056 9
-5.8486481 15.133521 -0.75660807 18
-5.9932575 15.507701 -0.38599557 18
-6.6516771 17.211378 0 5
-1.8538864 4.7969766 -1.4746599 14
-1.9947572 5.1614833 -1.4485983 16
-2.1761978 5.6309652 -1.4303899 10
-2.3956184 6.1987214 -1.4125521 11
-2.6207607 6.7812824 -1.3697553 24
-2.8902347 7.5450511 -1.3274429 23
-3.3383121 8.7147722 -1.3115674 27
-3.897589 10.174782 -1.2741733 21
-4.4834642 11.704229 -1.1693238 35
-5.8022938 15.147076 -0.75642174 14
-5.968679 15.581429 -0.3873882 10
-6.6170387 17.273993 0 11
-1.8396462 4.8024559 -1.4746599 14
-1.979435 5.1673789 -1.4485983 16
-2.1608741 5.6410317 -1.431312 10
-2.3772168 6.2058015 -1.4125521 11
-2.6168003 6.8312416 -1.3782723 33
-2.8649466 7.5420246 -1.3254975 24
-3.3076303 8.7073975 -1.3090622 25
-3.8522277 10.141061 -1.2685981 21
-4.8148575 12.6752 -0.94813001 16
-5.7599678 15.163221 -0.75642174 14
-6.4626265 17.012983 -0.42252934 17
-6.555275 17.256882 0 5
-1.8255438 4.8057775 -1.4741086 14
-1.9677438 5.1801214 -1.4506242 15
-2.1478753 5.6543217 -1.4331565 11
-2.3577917 6.2069302 -1.4113046 11
-2.6039929 6.8550591 -1.381605 29
-2.8460343 7.5597262 -1.3271188 24
-3.2782934 8.7079058 -1.3076706 25
-3.815824 10.135713 -1.2665073 26
-4.7976155 12.743577 -0.95217586 21
-5.7248096 15.206419 -0.75772607 18
-6.4565039 17.149969 -0.42545387 13
-12.029317 31.95265 0 21
-1.8092456 4.8057752 -1.4724549 14
-1.9489578 5.1768832 -1.4480917 15
-2.1358902 5.673419 -1.4363844 9
-2.3379879 6.210237 -1.4104731 11
-2.596108 6.895864 -1.3882705 21
-2.8270385 7.5773821 -1.3287398 24
-3.2441318 8.6953278 -1.3043305 27
-3.7732327 10.113491 -1.2623259 26
-4.7102642 12.625039 -0.94227046 19
-5.7278481 15.352495 -0.76415461 15
-6.387414 17.120346 -0.42424697 18
-9.3009148 24.929476 0 13
-1.7929612 4.8057189 -1.4708011 15
-1.9261482 5.1627035 -1.4425201 16
-2.122447 5.6888485 -1.4386899 9
-2.3161304 6.2079825 -1.4083939 12
-2.5818174 6.9201097 -1.3916032 18
-2.8312025 7.6537333 -1.3407367 26
-3.217777 8.6987801 -1.3034953 25
-3.7277482 10.077411 -1.2565184 31
-4.2467861 11.480552 -1.1420135 47
-4.6922965 12.684923 -0.94575828 19
-5.6821828 15.360932 -0.76378191 15
-6.3465195 17.156868 -0.42471114 13
-10.360889 28.009117 0 16
-1.7802018 4.81251 -1.4713523 14
-1.9056834 5.1517305 -1.4379617 16
-2.1085792 5.7002287 -1.4400733 9
-2.2981076 6.2125912 -1.4079781 12
-2.5686207 6.9438825 -1.394936 16
-2.7949252 7.6292329 -1.3349004 39
-3.18771 8.7014074 -1.302382 22
-3.7480047 10.230828 -1.2741733 52
-4.2997503 11.736915 -1.1661655 27
-4.6455626 12.680868 -0.94436318 21
-5.6187816 15.337438 -0.76173228 15
-4.6233253 12.620168 -0.31204593 7
-6.7277122 18.364456 0 6
-1.7644138 4.8162737 -1.4708011 15
-1.8861626 5.1486077 -1.4354292 16
-2.092001 5.7104793 -1.4409956 9
-2.2785802 6.2197795 -1.4079781 12
-2.5461185 6.9500723 -1.3945657 15
-2.7635019 7.6091838 -1.3300369 28
-3.1769176 8.7475061 -1.3079489 27
-3.737726 10.291669 -1.2804453 47
-4.2336454 11.657161 -1.1570621 28
-4.6816406 12.890697 -0.95901203 26
-5.5656948 15.324902 -0.76033473 15
-6.3073893 17.367126 -0.42898193 4
-8.8078747 24.252106 0 12
-1.7496433 4.8175678 -1.4696984 14
-1.8711157 5.1520367 -1.4349227 16
-2.0740514 5.7108116 -1.4396123 9
-2.2585294 6.2187638 -1.4063148 12
-2.5213308 6.9423766 -1.3916032 15
-2.7990468 7.7789078 -1.3582457 26
-3.1576562 8.7755289 -1.3107324 30
-3.6856537 10.242901 -1.2730118 39
-4.2293816 11.753989 -1.1654223 22
-4.6987658 13.058469 -0.97045207 42
-5.5107336 15.31503 -0.7590304 15
-8.47019 23.539736 -0.580827 7
-8.5456047 23.749323 0 12
-1.7301352 4.8082662 -1.4652883 14
-1.8532016 5.1502833 -1.4328967 16
-2.0564401 5.7151089 -1.439151 9
-2.234108 6.2088709 -1.4025724 13
-2.4820902 6.8980451 -1.3812348 19
-2.7494683 7.708622 -1.3446277 39
-3.1377969 8.79737 -1.3126807 25
-3.6510313 10.236314 -1.270921 26
-4.2179508 11.825774 -1.1713674 33
-4.523541 12.682549 -0.9415729 40
-5.4806991 15.366113 -0.7608006 15
-8.3849459 23.508682 -0.57948077 14
-1.7121809 4.8004026 -1.4614292 14
-1.836863 5.1499715 -1.4313772 16
-2.0365508 5.7098312 -1.4363844 9
-2.200989 6.1708627 -1.3925927 15
-2.475364 6.9401217 -1.3882705 17
-2.7325335 7.7292957 -1.3468974 28
-3.1184967 8.8210382 -1.3149077 25
-3.6098483 10.210885 -1.2665073 21
-4.1769419 11.814977 -1.169138 24
-4.527338 12.806113 -0.94980413 40
-5.4324355 15.366289 -0.76005524 15
-5.6114826 15.872746 -0.3908698 3
-8.6908102 24.582989 0 13
-1.7045349 4.8214793 -1.4663908 14
-1.8218278 5.1532564 -1.4308707 16
-2.0218935 5.7191658 -1.4373065 9
-2.1817901 6.1714525 -1.3913451 16
-2.44418 6.9136534 -1.381605 19
-2.6795526 7.65588 -1.3326308 67
-3.0914249 8.8326607 -1.3151859 24
-3.5777538 10.222175 -1.2665073 21
-4.1740136 11.925777 -1.1787988 19
-4.641973 13.262806 -0.98258966 30
-5.3847971 15.385166 -0.76014841 15
-6.2676902 17.907722 -0.44049451 4
-1.6779482 4.7941475 -1.4564679 16
-1.8094654 5.1699114 -1.4339097 16
-2.0019884 5.7199788 -1.4359232 9
-2.1649771 6.1856613 -1.3930085 16
-2.4282928 6.937993 -1.3849378 19
-2.6355565 7.5938859 -1.3206339 56
-3.0630927 8.8257551 -1.3129591 24
-3.5731218 10.295314 -1.2744055 21
-4.1440802 11.940428 -1.1791703 19
-4.5928397 13.233448 -0.97952044 10
-5.3274641 15.350139 -0.75772607 15
-6.2522492 18.014742 -0.44272274 19
-8.5733385 24.702547 0 13
-16.040686 46.218376 1.1358435 29
-1.658456 4.7785454 -1.4504038 16
-1.8111478 5.2184992 -1.4460657 16
-1.987005 5.7252007 -1.4359232 9
-2.1455667 6.1820679 -1.3909293 15
-2.4184961 6.9684653 -1.3897518 15
-2.6411839 7.6879845 -1.3355489 28
-3.030848 8.8222227 -1.3110107 25
-3.5446348 10.317759 -1.2757993 23
-4.1071973 11.955271 -1.1793561 16
-4.5402255 13.215734 -0.97714865 25
-5.2921996 15.404588 -0.75958949 15
-6.1845832 18.002146 -0.44193357 19
-6.4032879 18.638754 0 6
-1.6315686 4.749186 -1.4399297 16
-1.8016605 5.2442913 -1.4516373 15
-1.9690101 5.7314143 -1.4359232 9
-2.1280427 6.1943274 -1.3921767 17
-2.4029794 6.994616 -1.3934548 15
-2.626066 7.7140126 -1.3387914 23
-3.004925 8.8269024 -1.310454 25
-3.4799609 10.22231 -1.2627904 21
-3.8138909 11.203222 -1.1041137 7
-4.6357551 13.617431 -1.0058883 5
-5.2626843 15.459022 -0.76154596 15
-6.1961484 18.201052 -0.44639003 10
-8.1011209 23.796867 0 12
-1.612105 4.7355237 -1.4344169 15
-1.7658098 5.1870284 -1.4344162 18
-1.9492353 5.7258368 -1.4331565 11
-2.1176727 6.2206173 -1.3967509 17
-2.3834386 7.0012989 -1.3934548 15
-2.6007271 7.7100968 -1.3368459 23
-2.9979854 8.8878059 -1.3182477 34
-3.452668 10.235754 -1.263255 26
-4.0511808 12.010101 -1.1825144 16
-5.224597 15.488802 -0.76229125 18
-6.0724382 18.002306 -0.441098 9
-8.712225 25.828197 0 14
-1.6068612 4.763689 -1.4415834 14
-1.7395668 5.1571069 -1.4247926 16
-1.9338584 5.7331023 -1.4336177 11
-2.1159229 6.2728496 -1.4071465 16
-2.3663883 7.0153775 -1.394936 13
-2.5791876 7.717329 -1.3368459 23
-2.9945004 8.9600086 -1.3277116 27
-3.4309988 10.26608 -1.2658104 21
-3.7462099 11.20924 -1.1026274 5
-4.4236603 13.236276 -0.97589308 7
-5.1920924 15.535543 -0.76387513 15
-6.0075684 17.975574 -0.44003028 14
-8.6533823 25.89226 0 14
-1.5947719 4.7718043 -1.442686 15
-1.7263861 5.1656146 -1.4258056 16
-1.9184588 5.7403259 -1.4340787 9
-2.1002588 6.2842999 -1.4083939 15
-2.3480358 7.0256863 -1.3956766 13
-2.56496 7.7511768 -1.3413852 24
-2.9560823 8.9331284 -1.322423 27
-3.3949089 10.25924 -1.2637197 18
-3.9888268 12.054029 -1.184558 13
-4.4226041 13.364882 -0.98440337 10
-5.1591578 15.590709 -0.76583159 18
-5.9818497 18.076841 -0.44207284 19
-8.6016579 25.993767 0 28
-15.338107 46.350971 1.1335225 30
-1.5763798 4.7637386 -1.438827 14
-1.7165233 5.1872449 -1.4303641 16
-1.9008082 5.7441449 -1.4336177 11
-2.0766883 6.2756453 -1.4050673 15
-2.3228588 7.0195599 -1.3930844 13
-2.5351894 7.7381244 -1.3378186 26
-2.9344945 8.9569178 -1.3246497 25
-3.356411 10.244728 -1.2606997 21
-3.9499404 12.05635 -1.1836292 13
-5.1215796 15.632529 -0.76713592 15
-5.8061705 17.722095 -0.43297422 9
-6.2267981 19.005972 0 7
-1.5568501 4.7519526 -1.4338655 14
-1.7113639 5.2235727 -1.4389747 18
-1.8819373 5.7442117 -1.4322343 11
-2.0556209 6.274344 -1.4034041 15
-2.3087502 7.046967 -1.3971578 11
-2.5256155 7.786912 -1.3449519 24
-2.9158509 8.9900751 -1.3282682 25
-3.3339689 10.279205 -1.2637197 21
-3.9338133 12.128631 -1.1895742 22
-5.0739446 15.643854 -0.76694959 18
-5.7615843 17.763968 -0.43357766 13
-6.1697659 19.022461 0 7
-1.5385928 4.7437491 -1.4300066 15
-1.7066032 5.2617545 -1.4480917 15
-1.8600832 5.7349601 -1.4285452 10
-2.0369966 6.2804151 -1.4034041 15
-2.2908642 7.0631332 -1.3990093 11
-2.5079274 7.8112831 -1.34787 23
-2.9000595 9.0326319 -1.3332784 27
-3.3192408 10.338229 -1.2697594 23
-3.9172862 12.200923 -1.1955193 19
-4.3223691 13.462609 -0.98872828 10
-5.0360518 15.685472 -0.76825392 15
-5.6819539 17.697222 -0.43153512 18
-8.3142977 25.896017 0 14
-1.5321499 4.7720904 -1.4371732 14
-1.6832933 5.2428474 -1.4415072 16
-1.8448422 5.7460132 -1.4299287 10
-2.0213416 6.2957444 -1.4054831 15
-2.2686939 7.0661573 -1.3982687 11
-2.4856751 7.812181 -1.3468974 22
-2.9040263 9.1270084 -1.3460824 27
-3.3638387 10.572145 -1.2974033 23
-3.9034457 12.268064 -1.2010928 16
-3.9495623 12.413004 -0.91088003 2
-4.9961839 15.70241 -0.76844025 18
-5.6859231 17.87018 -0.43538815 19
-8.3695774 26.304585 0 14
-14.856513 46.692253 1.1376076 29
-1.5214008 4.7815814 -1.438827 14
-1.6807086 5.2822671 -1.4511309 16
-1.8274333 5.7434053 -1.4280843 10
-2.0119712 6.3233857 -1.4104731 15
-2.2519758 7.0776916 -1.3993796 11
-2.4587519 7.8124204 -1.3456004 23
-2.8640437 9.1001921 -1.3407938 30
-3.2757466 10.408334 -1.2760316 34
-3.8702681 12.297362 -1.2027649 16
-4.2082272 13.371191 -0.98021799 10
-4.9024496 15.577008 -0.76154596 22
-5.8284411 18.519247 -0.45075366 10
-5.9110675 18.781784 0 6
-1.4994465 4.7643304 -1.4322118 14
-1.6658491 5.293057 -1.4526502 15
-1.8082136 5.7454047 -1.4271619 10
-1.9956207 6.3408713 -1.412968 12
-2.2267807 7.075357 -1.3975281 11
-2.449455 7.8546267 -1.351761 20
-2.854362 9.1530352 -1.347474 22
-3.2112315 10.297402 -1.2613966 21
-3.4876926 11.183927 -1.0929667 5
-4.1696453 13.370733 -0.97938091 5
-4.849165 15.549737 -0.75958949 18
-5.1394458 16.480576 -0.40080404 4
-5.8678346 18.816288 0 6
-1.4841076 4.7590632 -1.4294554 14
-1.6531391 5.3010936 -1.4536633 15
-1.7920083 5.7464032 -1.4262397 10
-1.9801793 6.3498082 -1.4137996 12
-2.208251 7.081162 -1.3975281 11
-2.4224381 7.8547401 -1.350464 22
-2.8156679 9.1297846 -1.3427422 22
-3.1653974 10.263781 -1.2560537 21
-3.7753134 12.24143 -1.1951478 11
-4.5768318 14.840348 -1.0859687 11
-4.7979302 15.557259 -0.75921673 18
-5.0569992 16.397287 -0.39839014 15
-8.0537691 26.114296 0 14
-1.4668816 4.7563543 -1.4272504 15
-1.631914 5.291471 -1.4496113 15
-1.7670624 5.7296886 -1.4207063 10
-1.9590664 6.3522601 -1.412968 12
-2.1865711 7.0899429 -1.3978984 11
-2.3832054 7.8048496 -1.3407367 20
-2.7780173 9.0978346 -1.336897 24
-3.1239622 10.230783 -1.2509431 21
-4.1292653 13.523088 -0.98872828 2
-4.7690563 15.618364 -0.76154596 30
-4.9843316 16.323378 -0.39625472 15
-5.8255768 19.078403 0 6
-1.4210302 4.6537857 -1.3952764 37
-1.616002 5.2923064 -1.4485983 15
-1.7396895 5.6973753 -1.4114839 10
-1.941321 6.3577061 -1.412968 12
-2.1621733 7.0809832 -1.394936 9
-2.3659668 7.8265877 -1.3433306 23
-2.7388432 9.0600576 -1.3302166 30
-3.0827315 10.197636 -1.2458324 18
-3.698817 12.235639 -1.1925467 11
-4.0337491 13.34359 -0.97477698 7
-4.7381363 15.673693 -0.76359558 22
-4.8606157 16.078854 -0.3899878 15
-4.9487357 16.370354 0 4
-1.5995356 5.2912426 -1.4470787 16
-1.7187026 5.6854458 -1.4073339 10
-1.9235574 6.3631029 -1.412968 11
-2.1423888 7.0869942 -1.394936 11
-2.3591344 7.8884058 -1.3527337 19
-2.6546361 8.8764963 -1.3021038 57
-3.0518935 10.204833 -1.2456002 21
-3.6756222 12.290439 -1.1968198 27
-4.4291706 14.810132 -1.0809463 25
-4.7059245 15.735535 -0.76592481 22
-4.7911205 16.020411 -0.3882238 14
-4.8411207 16.187599 0 4
-1.5816126 5.2885504 -1.4450527 15
-1.6956933 5.6700101 -1.4022616 10
-1.9035492 6.3650327 -1.4121363 11
-2.1219163 7.095202 -1.3953062 11
-2.3438201 7.9176702 -1.3566245 19
-2.6236556 8.8629837 -1.2990419 57
-3.0098534 10.167601 -1.2400249 18
-3.6825511 12.440044 -1.210382 23
-4.6676378 15.76777 -0.76685643 22
-4.7650962 16.096996 -0.38975573 15
-4.7817078 16.153112 0 4
-4.8763347 16.472771 0.39885432 13
-1.5586009 5.2651176 -1.4374552 15
-1.6815112 5.6803212 -1.4036449 12
-1.8835472 6.3628201 -1.4104731 11
-2.1026535 7.1029844 -1.3956766 11
-2.3197608 7.9226966 -1.3563004 19
-2.6301799 8.982873 -1.3154643 101
-2.9791114 10.174582 -1.2397927 23
-3.643383 12.443273 -1.2096388 20
-4.6258812 15.798807 -0.76769495 18
-4.7195573 16.11874 -0.38994139 15
-4.7062173 16.073177 0 9
-4.8341746 16.510193 0.39941138 6
-1.5391649 5.2567215 -1.4339097 15
-1.673945 5.7170367 -1.4114839 12
-1.8613598 6.3571162 -1.4079781 12
-2.0782535 7.0978751 -1.3934548 11
-2.2967937 7.9314394 -1.3566245 19
-2.6062717 9.0001488 -1.316856 100
-2.9599621 10.221537 -1.2444386 21
-3.5959246 12.417685 -1.2061089 16
-3.8385973 13.255697 -0.96501106 7
-4.5773206 15.806705 -0.76741546 18
-4.7417889 16.374659 -0.39579049 3
-4.6863241 16.183125 0 13
-1.5241001 5.263123 -1.4344162 15
-1.6429014 5.6733756 -1.3994949 10
-1.8392258 6.351336 -1.4054831 12
-2.0555458 7.0983462 -1.3923439 11
-2.274035 7.9462066 -1.3579216 19
-2.5599997 8.9454594 -1.3076706 84
-2.9283793 10.232696 -1.244671 18
-3.5459344 12.390632 -1.2023933 16
-3.7810118 13.212068 -0.96096522 7
-4.5221386 15.801801 -0.76648378 22
-4.5318847 15.835856 -0.38242108 3
-7.3042541 25.523405 0 13
-1.5043627 5.2567253 -1.4313772 13
-1.629352 5.6934781 -1.4031838 10
-1.8192617 6.3570833 -1.4054831 12
-2.0321519 7.1009903 -1.3916032 13
-2.2518373 7.9525251 -1.3579216 17
-2.5463419 8.992589 -1.3135159 100
-2.9106188 10.279059 -1.2493169 23
-3.4966731 12.348752 -1.1973771 24
-3.7560625 13.264805 -0.9640345 9
-4.483984 15.835511 -0.76750857 22
-4.4538732 15.729173 -0.37954295 7
-4.99997 17.657753 0 11
-4.55901 16.100471 0.38850233 6
-1.4875696 5.253459 -1.4293511 15
-1.6155683 5.7054954 -1.4050283 12
-1.8084322 6.3866081 -1.4108888 13
-2.0155284 7.1179833 -1.3938251 13
-2.2280252 7.9530811 -1.3569489 16
-2.5441952 9.0816708 -1.3254846 37
-2.8942294 10.331141 -1.2546599 36
-3.4568057 12.339293 -1.1955193 55
-4.7276263 16.875572 -0.40688527 4
-5.0774307 18.124222 0 6
-1.4692408 5.2445507 -1.4258056 15
-1.7937579 6.402936 -1.4133838 15
-2.0014768 7.1444016 -1.3978984 13
-2.2070532 7.9691668 -1.35857 15
-2.513011 9.0739098 -1.3232579 46
-2.8375862 10.245877 -1.2432772 21
-3.4350631 12.40323 -1.2007213 100
-3.6961133 13.345823 -0.96835941 7
-4.4124389 15.932311 -0.7709558 15
-5.0188322 18.121859 0 18
-1.4510924 5.2395639 -1.4232732 15
-1.5255457 5.5083981 -1.3543051 45
-1.5079399 5.4448276 -1.2008981 4
-1.978173 7.1427321 -1.3964171 13
-2.190876 7.9920483 -1.3614882 13
-2.4682996 9.004056 -1.3121241 34
-2.8149509 10.268598 -1.2451355 23
-3.4141581 12.454432 -1.2048085 49
-3.5915315 13.101468 -0.94994366 9
-4.3981738 16.044001 -0.77580047 23
-4.5037899 16.429276 -0.39551198 3
-5.0136671 18.289246 0 6
-1.2767822 4.6575456 -1.3848021 20
-1.4373686 5.2433453 -1.4232732 15
-1.4874722 5.4261169 -1.1959082 4
-1.9568665 7.1384101 -1.3945657 13
-2.1697352 8.0080357 -1.3631094 13
-2.4384673 8.9998693 -1.310454 28
-2.7813559 10.265399 -1.2437418 26
-3.3282402 12.283834 -1.1873448 90
-3.576124 13.198721 -0.9562217 2
-4.3813791 16.17075 -0.78129733 28
-4.4628701 16.471514 -0.39620832 3
-4.8940039 18.062738 0 18
-1.2579304 4.6427565 -1.3792894 24
-1.4223119 5.249454 -1.4237796 16
-1.4235051 5.2538576 -1.2897487 14
-1.471367 5.4305058 -1.1959082 4
-1.9356791 7.1441841 -1.3945657 13
-2.1430342 8.0090952 -1.3621367 15
-2.4127386 9.0170527 -1.3118458 25
-2.7650073 10.333575 -1.2509431 47
-3.2577164 12.174962 -1.1758263 90
-4.3512077 16.261633 -0.78502399 20
-4.8168035 18.00169 -0.43264925 18
-5.1324153 19.181217 0 13
-6.689775 25.001488 0.6008811 13
-1.2507914 4.6745439 -1.3875586 27
-1.4038115 5.2464209 -1.4217536 18
-1.4829496 5.5421815 -1.3593776 26
-1.4532863 5.4313221 -1.1950765 2
-1.8913783 7.0685897 -1.3786427 19
-2.1205449 8.008955 -1.3611641 13
-2.3850696 9.0080214 -1.3096191 25
-2.7435389 10.361902 -1.2534984 39
-3.2742536 12.366325 -1.1934757 44
-3.9182725 14.79868 -1.0704829 30
-4.2983947 16.234341 -0.78316063 20
-4.7540541 17.955292 0 17
-1.2351055 4.664793 -1.3836997 22
-1.3880913 5.2425961 -1.4197277 16
-1.5272132 5.7680368 -1.4137896 14
-1.7019399 6.4279513 -1.4133838 8
-1.8799101 7.1001158 -1.3838269 14
-2.0996683 8.0205736 -1.3621367 13
-2.3583975 9.0088987 -1.3087839 24
-2.7221351 10.398349 -1.2569829 31
-3.2593718 12.450553 -1.2007213 33
-4.2322946 16.167044 -0.77934086 15
-4.6980648 17.946251 -0.43069956 13
-4.7550459 18.163914 0 12
-1.223533 4.6738033 -1.3853533 18
-1.3705043 5.2352223 -1.4166886 16
-1.5106051 5.7703967 -1.4133284 14
-1.6795222 6.415647 -1.4096414 8
-1.8491228 7.0635085 -1.3756802 15
-2.0739684 8.025218 -1.3618125 12
-2.3305809 9.0181808 -1.3090622 25
-2.6864741 10.395309 -1.2555891 31
-3.2172542 12.449162 -1.1996065 35
-3.8423662 14.868032 -1.0738312 11
-4.1684899 16.129967 -0.77691847 23
-4.6366625 17.941561 -0.43023533 18
-1.2165414 4.7074056 -1.3941737 22
-1.3511469 5.2282619 -1.4136496 16
-1.4924706 5.7751136 -1.4133284 14
-1.6505492 6.3867984 -1.4021566 8
-1.8234822 7.0559626 -1.373088 15
-2.0530162 8.0367146 -1.3627851 13
-2.3215663 9.0879774 -1.3182477 33
-2.6574361 10.40277 -1.2555891 31
-3.1913509 12.492826 -1.2029507 44
-3.4630702 13.556497 -0.97840434 5
-3.5132499 13.752929 -0.66195059 9
-4.5627904 17.861448 -0.4280071 18
-4.5823355 17.93796 0 11
-1.2081504 4.7294121 -1.3996866 20
-1.3384579 5.2395129 -1.4156755 16
-1.474412 5.7717166 -1.4114839 17
-1.6268981 6.3686371 -1.3971667 8
-1.8091232 7.0819736 -1.3771614 15
-2.0310907 8.0504255 -1.3640821 12
-2.2999184 9.1159515 -1.3213096 25
-2.6187811 10.379793 -1.2518723 26
-3.153779 12.500311 -1.2027649 77
-3.4306369 13.597664 -0.98063648 7
-3.4861088 13.817533 -0.66455925 12
-6.4352474 25.506731 0 13
-1.1978737 4.747889 -1.4040968 16
-1.3214848 5.2378335 -1.4141561 16
-1.4501376 5.7477617 -1.4045672 14
-1.6060786 6.365849 -1.3955034 8
-1.7866582 7.0815935 -1.3760505 17
-2.006247 8.0525866 -1.3634337 12
-2.2709515 9.1150455 -1.320196 24
-2.6071882 10.464618 -1.2611644 49
-3.0555446 12.264211 -1.1791703 100
-3.3931801 13.619397 -0.98147357 10
-4.0652533 16.316936 -0.78418553 8
-4.5120792 18.110386 0 6
-1.1916856 4.7831349 -1.4134685 15
-1.2984575 5.2116914 -1.406052 16
-1.4321401 5.748261 -1.4036449 14
-1.5810398 6.3459077 -1.3900977 8
-1.7518643 7.0315561 -1.3653116 14
-1.9842076 8.0539789 -1.3627851 13
-2.227649 9.0421171 -1.3087839 31
-2.5707459 10.434762 -1.2567507 26
-3.0110314 12.221899 -1.1743399 41
-3.3765922 13.705724 -0.98705411 10
-4.4084296 17.893993 -0.4278678 18
-4.8421116 19.654327 0 7
-1.1791553 4.7862396 -1.4134685 16
-1.2843419 5.2131958 -1.4055455 15
-1.4156851 5.7463231 -1.4022616 14
-1.5648836 6.3519258 -1.3905135 8
-1.7273322 7.0113115 -1.3604977 14
-1.9602954 8.0659266 -1.363758 13
-2.206717 9.0798635 -1.3132375 31
-2.551089 10.496834 -1.263255 26
-2.9698012 12.219687 -1.1732253 24
-3.3024235 13.58831 -0.97784626 10
-4.0051675 16.479856 -0.7908935 4
-4.335197 17.837811 -0.42619666 13
-6.1000066 25.09938 0 12
-1.1695623 4.8123379 -1.4200838 14
-1.2652173 5.205924 -1.4025065 13
-1.3921114 5.7280488 -1.3967282 14
-1.540302 6.337801 -1.3863553 8
-1.6992643 6.9918747 -1.3556838 12
-1.9377649 8.0713692 -1.363758 13
-2.177655 9.0705824 -1.3110107 25
-2.5222318 10.505848 -1.2634873 23
-2.9147487 12.140798 -1.164865 24
-3.2621381 13.587778 -0.97714865 10
-3.9568026 16.481262 -0.79042763 16
-4.2788363 17.822628 -0.42554677 13
-4.5344448 18.887314 0 6
-1.1579152 4.8230624 -1.4222889 14
-1.2529341 5.2188439 -1.4050391 15
-1.3761113 5.7319136 -1.3967282 14
-1.5216854 6.338273 -1.3855237 7
-1.679275 6.9946814 -1.3553134 12
-1.9106616 8.0575457 -1.3605155 16
-2.1344922 9.0014725 -1.3001552 25
-2.4873807 10.489656 -1.2606997 28
-2.8716407 12.110138 -1.1611494 22
-3.2838564 13.848513 -0.66372073 12
-4.2511873 17.927893 -0.42777497 18
-3.8536339 16.25135 0 4
-13.495849 56.914009 1.3580173 58
-1.1448842 4.8281479 -1.4228401 14
-1.2352289 5.2091446 -1.4014935 15
-1.3578525 5.7262669 -1.3944225 16
-1.5111994 6.3729539 -1.3921767 8
-1.660187 7.0012565 -1.3556838 12
-1.834118 7.8444328 -1.323552 34
-2.1044009 9.0004187 -1.2990419 22
-2.4417531 10.443258 -1.2541953 23
-2.8304102 12.105526 -1.1598488 23
-3.1673667 13.546673 -0.9728238 9
-3.2216876 13.778999 -0.65990084 12
-3.2812221 14.033627 -0.33460683 11
-4.5169945 19.318964 0 6
-13.257812 56.703014 1.3519825 57
-1.1336508 4.8485689 -1.4278016 14
-1.2144537 5.194159 -1.3964285 13
-1.3216912 5.6528087 -1.3755167 18
-1.493399 6.3871942 -1.3942559 6
-1.6377375 7.0045233 -1.3553134 10
-1.81709 7.870677 -1.3271188 66
-2.0854976 9.0332775 -1.3029387 22
-2.4201789 10.482941 -1.2581445 21
-2.786293 12.068754 -1.1555758 21
-3.7872112 16.404205 -0.78511709 16
-3.850127 16.676722 -0.39736885 7
-3.8826573 16.817627 0 9
-4.7218022 20.452362 0.48733386 9
-1.1252972 4.8741946 -1.4344169 14
-1.2069088 5.2276936 -1.4045326 13
-1.2940813 5.605279 -1.3630664 18
-1.4786384 6.4046831 -1.3971667 8
-1.6164036 7.0014091 -1.3538322 12
-1.7915926 7.8603268 -1.3245246 34
-2.0624619 9.0487223 -1.3043305 19
-2.4014871 10.536141 -1.2637197 23
-2.7477083 12.055132 -1.1535321 26
-3.0983078 13.59333 -0.97491652 35
-3.7662456 16.523802 -0.79033452 16
-3.1690214 13.903575 -0.3310788 8
-3.8178952 16.750406 0 9
-1.1129616 4.8829417 -1.4360707 14
-1.1957438 5.2461352 -1.4085846 15
-1.2775568 5.6050763 -1.3621444 16
-1.4611801 6.4106946 -1.3975825 8
-1.5911654 6.9809847 -1.3490182 14
-1.7772722 7.9121299 -1.3323065 56
-2.0331576 9.0512905 -1.3037736 16
-2.3683772 10.543633 -1.2637197 21
-2.7159352 12.090906 -1.1561332 21
-3.1041267 13.819072 -0.99040246 22
-3.7366498 16.634962 -0.79508603 12
-3.1117446 13.852985 -0.32963973 11
-3.7604353 16.740852 0 9
-1.0997238 4.895793 -1.438827 14
-1.1779857 5.2442021 -1.407065 13
-1.2539713 5.5824785 -1.3556886 18
-1.441892 6.4190712 -1.3984141 9
-1.5636278 6.961019 -1.3442043 14
-1.7475764 7.8762951 -1.3254975 45
-2.0120301 9.0681829 -1.3054438 16
-2.3442099 10.565312 -1.2655782 21
-2.6847053 12.099917 -1.1563189 23
-3.1098599 14.016083 -1.0039352 30
-3.0270867 13.643025 -0.65170223 9
