# .PCD v0.7 - Point Cloud Data file format
VERSION 0.7
FIELDS x y z intensity
SIZE 4 4 4 4
TYPE F F F F
COUNT 1 1 1 1
WIDTH 1375
HEIGHT 1
VIEWPOINT 0 0 0 1 0 0 0
POINTS 1375
DATA ascii
-3.4901209 -6.2834086 1.1808859 27
-3.4853008 -6.2747307 1.352351 32
-4.5871291 -8.20434 -1.3210312 27
-5.0157676 -8.9709835 -1.2019275 13
-5.4887481 -9.8169355 -1.0493073 42
-4.9870172 -8.9195614 -0.7145853 6
-4.9684186 -8.8862972 -0.47477832 7
-5.0193148 -8.9773273 -0.23879267 7
-4.2906017 -7.6739831 0 7
-3.5381095 -6.3281088 0.16832469 6
-3.5322962 -6.3177114 0.33754355 15
-3.5392048 -6.3300676 0.50712955 29
-3.5354226 -6.3233027 0.6758818 30
-3.5151091 -6.2869711 0.84232491 31
-3.508487 -6.2751269 1.0103967 41
-3.5115068 -6.2805281 1.1821829 21
-3.5114422 -6.2804127 1.3556838 26
-4.5966463 -8.1677294 -1.5398208 27
-4.6168222 -8.2035799 -1.3229796 21
-3.318316 -5.8962789 -0.79121858 10
-5.4419155 -9.6696787 -1.0351877 32
-5.445384 -9.6758423 -0.77638954 15
-5.0118318 -8.905468 -0.47654849 8
-5.1306605 -9.1166134 -0.24287778 11
-3.5498593 -6.3077054 0 3
-3.5528255 -6.3129759 0.16818543 10
-3.5460057 -6.300858 0.33717087 16
-3.5470831 -6.3027725 0.50573444 49
-3.550137 -6.3081989 0.67532444 41
-3.534601 -6.2805929 0.84278953 55
-3.5269685 -6.2670312 1.0106752 35
-3.5338717 -6.2792974 1.1838042 16
-3.5318592 -6.2757211 1.3567947 23
-4.6734037 -8.2467737 -1.5573299 9
-4.7290249 -8.344923 -1.3480308 4
-5.0389524 -8.8918276 -1.1951908 7
-5.4696007 -9.6517572 -1.035002 32
-5.446527 -9.6110411 -0.77248317 31
-3.3605807 -5.9301419 -0.15825121 2
-3.5754619 -6.3093252 0 5
-3.5646405 -6.2902298 0.16786048 8
-3.5568054 -6.2764034 0.33642554 15
-3.5608501 -6.2835412 0.50503689 57
-3.566875 -6.2941723 0.67495286 49
-3.5590966 -6.2804465 0.84418333 40
-3.5523832 -6.2686 1.0126235 35
-3.5524876 -6.268784 1.1838042 16
-3.5601544 -6.2823133 1.3604977 17
-3.2336237 -5.6668487 -1.071941 5
-4.7733941 -8.3652592 -1.3535978 6
-3.2085242 -5.6228623 -0.6039834 10
-5.4829283 -9.6087017 -0.77359927 15
-5.111125 -8.9571247 -0.48092735 6
-3.6070702 -6.3213048 -0.16897459 5
-3.5794771 -6.2729483 0.50503689 54
-3.5855334 -6.2835622 0.67495286 68
-3.5816526 -6.2767611 0.84511256 40
-3.581763 -6.2769547 1.0156853 26
-3.5886765 -6.2890701 1.1896404 10
-3.5865703 -6.2853789 1.3634601 16
-4.7750354 -8.3141127 -1.347474 6
-5.1632915 -8.9901285 -1.2123811 5
-5.5246453 -9.6193047 -0.77569199 7
-3.6316996 -6.323379 -0.34005904 3
-3.6009555 -6.2698488 0.50559491 31
-3.6090174 -6.2838855 0.67606759 48
-3.6011455 -6.2701793 0.84557712 37
-3.6051962 -6.2772326 1.0173554 28
-3.6180201 -6.2995605 1.1935314 7
-4.793406 -8.3460989 1.8133798 12
-4.2973342 -7.4342084 -1.4107729 22
-4.8368902 -8.3676186 -1.3583295 18
-4.6644692 -8.0693369 -1.0899583 20
-3.443181 -5.9565592 -0.64188331 7
-5.5544815 -9.6090202 -0.77611053 8
-3.6603863 -6.332315 0.51145446 7
-3.628545 -6.2772312 0.67643917 27
-3.6265948 -6.2738576 0.84743553 23
-3.6336148 -6.2860017 1.0204172 13
-4.6568446 -8.0561466 1.5287966 12
-4.7989893 -8.3020506 1.8067143 9
-4.3289151 -7.4318557 -1.4130425 27
-4.6752095 -8.026371 -1.3054438 21
-4.6922007 -8.055542 -1.0901905 25
-4.7067556 -8.0805302 -0.87244111 9
-5.5933433 -9.6026182 -0.77708709 5
-3.6501472 -6.2665505 -0.33819571 7
-3.6563559 -6.2772098 0.67773962 14
-3.6763737 -6.3115764 0.85417229 7
-4.6672344 -8.0126801 1.3032171 13
-4.6626725 -8.0048485 1.5219876 27
-4.8294601 -8.2911882 1.8078252 8
-4.3523479 -7.4273067 -1.4143394 28
-4.6922016 -8.0072689 -1.3043305 30
-4.7152824 -8.0466566 -1.0906551 27
-4.746017 -8.0991058 -0.87578523 4
-3.6878104 -6.2932696 -0.51005936 4
-3.6969399 -6.3088493 0.68219841 7
-4.6359415 -7.9112606 1.0723033 20
-4.6441374 -7.9252477 1.2909697 17
-4.6846113 -7.9943156 1.5223118 38
-4.3843956 -7.4313588 -1.4175819 24
-4.719965 -8.0001345 -1.3054438 36
-4.7361093 -8.0274982 -1.0899583 32
-5.6594748 -9.5925627 -1.0390893 2
-4.6563663 -7.8923378 1.0716064 20
-4.6887674 -7.9472556 1.2968152 27
-4.7143278 -7.9905801 1.5242572 31
-4.8237596 -8.1760616 1.7885695 8
-4.4094491 -7.4234066 -1.4185545 27
-4.7467165 -7.9912033 -1.3062788 13
-4.7548347 -8.0048704 -1.0887967 27
-3.7261775 -6.2731032 -0.68071216 7
-4.6584592 -7.8426208 1.066728 15
-4.6991782 -7.9111719 1.2931966 22
-4.7813554 -8.0495186 1.5381997 27
-4.8500051 -8.1650925 1.78931 15
-4.4402871 -7.4280052 -1.421797 15
-4.7649469 -7.971117 -1.3051654 15
-4.7771688 -7.9915624 -1.0887967 5
-4.6721869 -7.8159423 1.0648696 13
-4.6836514 -7.8351207 1.2828977 24
-4.9253268 -8.2394114 1.5771085 48
-4.8042121 -8.0368023 1.7641294 12
-4.4735012 -7.4333982 -1.4253638 9
-4.784492 -7.9501567 -1.3040521 24
-3.4026999 -5.6541004 -0.77170533 5
-4.6912599 -7.7952375 1.0639405 10
-4.6925807 -7.7974324 1.2790009 27
-4.9416108 -8.2112331 1.5745146 63
-4.8179021 -8.0056725 1.7604262 12
-4.5034432 -7.436069 -1.4282819 11
-4.8097534 -7.9418464 -1.3048871 7
-4.7191854 -7.7923012 1.0653343 5
-4.7122865 -7.7809095 1.2784443 29
-4.7682309 -7.8732853 1.5122602 8
-4.8280225 -7.9720125 1.7559825 11
-4.5224032 -7.4176202 -1.4273092 22
-4.8394799 -7.9376879 -1.3065572 9
-4.7340097 -7.7646961 1.0634758 3
-4.7384434 -7.7719674 1.2792792 29
-4.818913 -7.9039536 1.7441328 6
-4.561944 -7.4327621 -1.4328212 23
-3.7192621 -6.059783 -0.99926293 11
-4.7677002 -7.7680001 1.2809494 27
-4.7973189 -7.816258 1.5067482 8
-4.8886104 -7.9649982 1.7607965 8
-4.5891628 -7.4275894 -1.4344424 23
-3.6414516 -5.8937125 -0.9736551 3
-4.7980132 -7.765615 1.2828977 26
-4.8557577 -7.8590746 1.5177724 8
-4.8533359 -7.855155 1.7396892 12
-3.7950289 -6.1040912 -1.1808859 10
-3.7969756 -6.1072221 -1.0106752 5
-4.8228178 -7.7572312 1.2837328 22
-4.8693495 -7.8320756 1.5151784 8
-4.8711019 -7.8348942 1.7382079 16
-3.7984664 -6.0693827 -1.1763465 16
-4.9676938 -7.937634 1.316021 8
-4.8925672 -7.8175926 1.5151784 8
-4.89537 -7.8220716 1.7385783 16
-3.8122485 -6.0514073 -1.1750495 7
-5.00389 -7.9429708 1.3193611 6
-4.9262581 -7.8197403 1.5184208 8
-4.930079 -7.8258057 1.7426517 15
-5.0373893 -7.9499183 1.3227013 4
-4.9477706 -7.8084836 1.5187451 8
-4.9621229 -7.8311338 1.7467248 13
-4.96455 -7.7837853 1.5167997 10
-5.045579 -7.9108286 1.7678323 8
-4.9889793 -7.7681499 1.5167997 10
-5.0831523 -7.9147835 1.7722759 8
-5.031002 -7.7856822 1.5229602 8
-5.1372347 -7.9500818 1.7833852 5
-5.0530052 -7.7690668 1.5226359 10
-5.0976534 -7.7870636 1.5291208 10
-6.3523011 -9.7036362 2.1851652 1
-5.1280618 -7.7859845 1.5317148 8
-6.3749118 -9.6204948 2.1744263 1
-16.776287 -25.154982 5.6967602 5
-6.1478052 -9.1627102 1.8128316 2
-6.1082683 -9.1037836 2.0655568 1
-5.6574049 -8.3246193 1.6536294 2
-5.715848 -8.3540401 1.6630324 2
-6.1770859 -8.9810019 2.0537074 1
-5.3845911 -7.7272506 1.7744979 1
-5.1077514 -7.1528788 1.6560004 1
-18.653238 -25.958727 6.0226274 8
-17.961752 -24.398371 5.7082396 5
-17.535059 -23.679987 5.5516009 4
-5.5743141 -7.4839678 1.7582043 2
-17.344479 -23.125887 5.4464345 9
-17.422714 -23.103937 5.4519887 4
-17.511843 -23.071007 5.4571733 4
-17.642992 -23.109497 5.4779105 4
-20.165318 -22.905277 5.7497134 6
-20.770367 -20.403862 5.4856868 9
-20.816019 -20.334789 5.4827242 4
-19.431963 -18.876968 5.1042733 4
-19.200518 -18.431944 5.0146599 4
-5.3385677 -4.9782944 -1.3753098 1
-22.459599 -20.819675 4.3040676 12
-5.3389001 -4.9490719 -1.3716068 1
-5.3405528 -4.9212227 -1.3682741 5
-5.7139726 -5.2358913 -1.2732947 1
-5.1072984 -4.6799769 -1.4724307 1
-5.3513765 -4.9036336 -1.3675334 5
-5.6857128 -5.1790447 -1.2635673 1
-5.9884477 -5.454802 -1.1384361 1
-12.278544 -11.184372 1.9422721 2
-5.1009145 -4.646359 -1.4666092 1
-5.3673558 -4.8890572 -1.3679038 5
-22.601303 -20.587244 5.7600818 6
-5.6995912 -5.1608286 -1.2632432 1
-5.9605618 -5.397131 -1.1300857 3
-5.941587 -5.3799496 -0.93733621 2
-12.189456 -11.03723 1.9229912 2
-5.1262784 -4.6417093 -1.4699358 1
-5.3760095 -4.8678341 -1.3664225 5
-22.69725 -20.55176 5.7689691 6
-5.6752739 -5.1082463 -1.2544887 2
-5.897058 -5.3078718 -1.115055 6
-5.9073243 -5.3171124 -0.92943799 2
-12.166046 -10.950514 1.9141637 8
-5.1400285 -4.6264787 -1.4699358 1
-5.3904295 -4.8518615 -1.3664225 5
-5.665103 -5.0723076 -1.2493008 3
-5.906508 -5.2884521 -1.1142199 6
-5.893105 -5.2764516 -0.92502421 5
-5.1477509 -4.6090913 -1.4686882 1
-5.4031134 -4.8377328 -1.3664225 5
-5.6736369 -5.0479274 -1.2476796 3
-5.8905392 -5.2409086 -1.1080964 5
-5.8755174 -5.2275434 -0.91968125 7
-5.1519732 -4.5837946 -1.4657775 2
-5.4153476 -4.8181229 -1.365682 3
-5.6900678 -5.0323777 -1.2480038 3
-5.9045801 -5.2220955 -1.107818 5
-5.8895144 -5.2087712 -0.91944897 10
-5.9368272 -5.2506151 -0.73941988 4
-5.1567588 -4.5607114 -1.4632826 4
-5.4325638 -4.8046374 -1.3664225 3
-5.6996536 -5.012558 -1.2470311 3
-5.8953447 -5.1846585 -1.1033645 5
-5.8965788 -5.1857443 -0.91828746 10
-5.9424949 -5.2261248 -0.73830515 6
-5.1768203 -4.552753 -1.4653617 4
-5.4607191 -4.8024278 -1.3701257 1
-5.7100434 -4.9917278 -1.2460583 3
-5.9107022 -5.1671438 -1.1033645 5
-5.9059577 -5.1629963 -0.91735828 10
-5.9489794 -5.2006059 -0.73719049 6
-9.6223335 -8.4118567 -0.89371991 2
-5.1917787 -4.53866 -1.4657775 4
-5.4631066 -4.7758555 -1.3671632 1
-5.7120457 -4.9654045 -1.2434645 3
-5.9146457 -5.1415219 -1.101416 5
-5.9173546 -5.143877 -0.91689366 10
-5.9544621 -5.1761336 -0.73607576 6
-9.6623507 -8.3993511 -0.89525461 2
-11.876789 -10.324333 -0.73387539 3
-11.95289 -10.390487 -0.36770543 3
-12.229039 -10.63054 1.5117234 2
-5.1424232 -4.4702396 -1.448313 2
-5.4823556 -4.765738 -1.3686444 1
-5.7184243 -4.9429808 -1.2418432 3
-5.9439645 -5.1379366 -1.1041995 5
-5.9301929 -5.1260324 -0.91666132 10
-5.9628677 -5.1542764 -0.73533261 6
-9.6902952 -8.3762484 -0.8956731 2
-11.814889 -10.212737 -0.72828537 7
-5.0779257 -4.3893366 -1.4266902 2
-5.4822612 -4.738842 -1.3653116 1
-5.7324266 -4.9237065 -1.241519 3
-5.9405441 -5.1024632 -1.1005809 5
-5.9477739 -5.1086731 -0.91689366 10
-5.9805403 -5.136817 -0.7355184 9
-6.0947967 -5.2349544 -0.56181866 2
-11.812055 -10.145632 -0.72614253 3
-17.147129 -14.728044 2.6433578 5
-5.084269 -4.3669901 -1.424611 1
-5.500102 -4.7241578 -1.3660523 1
-5.7470093 -4.9066772 -1.241519 3
-5.9511371 -5.0809574 -1.099746 5
-5.9583721 -5.0871344 -0.91619676 10
-5.9927254 -5.1164646 -0.73514688 9
-6.1087832 -5.2155523 -0.56167912 5
-11.822351 -10.093678 -0.72493136 7
-11.88804 -10.149761 1.8279798 2
-5.0957155 -4.350616 -1.4241952 1
-5.512599 -4.7065425 -1.365682 1
-5.7508116 -4.8839483 -1.2395736 3
-5.9764977 -5.0756149 -1.1019727 5
-6.0182443 -5.1110687 -0.73663312 6
-6.1041703 -5.1840425 -0.56000501 5
-12.069543 -10.250209 -0.73844057 3
-23.586891 -20.03146 3.6187913 12
-5.1011252 -4.3321939 -1.422532 1
-5.5353904 -4.7009993 -1.3682741 1
-5.7781916 -4.8760405 -1.2421675 2
-6.0166302 -5.0772514 -1.1064262 5
-6.0422268 -5.0988517 -0.92455965 2
-6.0297041 -5.0882845 -0.73607576 6
-6.0945044 -5.1429672 -0.55763328 4
-6.1012273 -5.1486402 -0.37229478 3
-11.80056 -9.9581337 1.8056788 2
-14.252224 -12.02702 2.620908 4
-5.1296597 -4.328764 -1.4266902 1
-5.5306034 -4.6671085 -1.3634601 1
-5.7978334 -4.8649602 -1.2434645 1
-6.0641632 -5.0884376 -1.1125499 4
-6.0351381 -5.0640821 -0.92130738 2
-6.0347376 -5.0637465 -0.73496103 6
-6.0935593 -5.1131034 -0.55623811 4
-13.448273 -11.284441 2.4672608 4
-5.1612101 -4.3307695 -1.4320959 1
-5.5345817 -4.6440654 -1.3612382 1
-5.7947278 -4.8348422 -1.2398977 2
-6.0798707 -5.0727515 -1.1128281 5
-6.0187511 -5.0217562 -0.91666132 7
-6.0396814 -5.0392199 -0.73384637 6
-6.083303 -5.0756154 -0.55400592 4
-6.1482964 -5.1298428 -0.37341279 4
-12.548057 -10.469495 1.1427505 4
-5.1642714 -4.3088198 -1.429601 2
-17.140211 -14.300967 3.6674907 4
-5.5399837 -4.6222959 -1.3593868 1
-5.8083677 -4.8153553 -1.2395736 3
-6.0729055 -5.034667 -1.1086531 5
-6.0268502 -4.9964852 -0.91549987 7
-6.0462837 -5.0125961 -0.73273164 6
-6.0992174 -5.0564804 -0.55400592 4
-6.1920643 -5.1334538 -0.37508976 4
-12.826634 -10.633762 1.1650727 4
-18.3041 -15.174787 3.3415463 7
-5.1356125 -4.2576156 -1.4179578 4
-5.5544767 -4.6048698 -1.3593868 3
-5.8050413 -4.7853069 -1.236007 2
-6.057641 -4.9935341 -0.91805518 2
-6.0571847 -4.9931579 -0.73236006 6
-6.133328 -5.0559254 -0.55581957 4
-6.1817117 -5.0958099 -0.37359911 4
-11.723056 -9.6637421 2.1351938 3
-5.1429534 -4.2395239 -1.4167104 2
-5.559732 -4.5830894 -1.3575352 1
-5.8565402 -4.8003545 -1.244113 1
-6.0546627 -4.9627466 -0.91549987 2
-6.071105 -4.9762235 -0.73236006 6
-6.122735 -5.0185423 -0.55358738 3
-6.2283649 -5.105123 -0.3755556 2
-12.188377 -9.9902887 1.1020128 4
-11.929575 -9.7781601 1.8038205 2
-5.1124091 -4.1904216 -1.4050673 2
-4.2607045 -3.4923162 -1.0379628 2
-5.8409863 -4.7570076 -1.2376281 3
-6.0867071 -4.9571271 -0.73236006 6
-6.124547 -4.9879441 -0.55233175 3
-12.638479 -10.293012 -0.37842882 3
-14.892513 -12.128739 1.7918856 3
-12.296013 -10.0141 1.8544621 2
-5.1240306 -4.1731057 -1.4046515 4
-5.570066 -4.536365 -1.3534619 1
-6.1148796 -4.9517336 -0.92014587 5
-6.0974312 -4.937604 -0.73198855 6
-6.1275983 -4.9620328 -0.55135518 4
-12.558403 -10.169598 -0.37517932 3
-12.422356 -10.059428 1.4912872 2
-12.526163 -10.14349 1.8848937 2
-5.1402249 -4.1624732 -1.4058989 5
-5.5796576 -4.5183187 -1.3527213 3
-6.2862597 -5.0615125 -1.1342609 4
-6.1101174 -4.9196882 -0.91735828 7
-6.1080942 -4.9180593 -0.73161697 6
-6.1383243 -4.9423995 -0.55107617 3
-12.248138 -9.8618441 -0.73331636 3
-12.426344 -10.005329 -0.3703979 3
-15.419139 -12.41504 1.8468777 3
-12.480173 -10.048671 1.8737431 2
-13.518156 -10.884425 2.4391479 4
-4.2375741 -3.4119709 -1.156405 3
-6.1753139 -4.9402847 -1.1114365 4
-6.1301966 -4.9041905 -0.91805518 7
-6.13129 -4.9050651 -0.73254585 6
-6.149147 -4.9193506 -0.55065763 3
-12.224459 -9.7796335 -0.73005551 7
-12.49987 -9.9999638 -0.37165129 3
-12.536468 -10.029242 0.74868888 2
-18.728537 -14.982931 3.3707728 7
-5.160253 -4.1282306 -1.4046515 5
-5.632463 -4.5060005 -1.3590164 1
-12.712176 -10.169809 3.0672297 7
-6.1454225 -4.8882885 -0.91828746 10
-6.1543145 -4.8953619 -0.73366058 6
-6.1815972 -4.9170637 -0.55233175 4
-12.195435 -9.7006845 -0.7267015 3
-12.5387 -9.9737301 -0.37197623 3
-12.542535 -9.9767809 0.74738455 4
-4.9636097 -3.9482324 -1.5027853 2
-3.9927588 -3.175983 0.71701992 1
-12.760743 -10.150352 2.6788795 5
-5.6065707 -4.4596667 -1.3497589 1
-6.1590495 -4.8711081 -0.91828746 7
-6.2226281 -4.9213915 -0.74016303 2
-6.1921749 -4.8973064 -0.55205274 3
-12.230312 -9.6727877 -0.72716737 3
-12.574347 -9.9448786 -0.37220836 6
-13.156171 -10.405036 0.38943073 6
-12.48103 -9.8710766 0.74207401 2
-12.499923 -9.8860178 1.4868284 2
-12.815722 -10.135778 2.2963562 14
-12.790588 -10.115901 2.679204 7
-5.614378 -4.4403348 -1.348648 1
-12.774946 -10.10353 3.068711 5
-5.9463949 -4.6726336 -1.2424917 1
-6.1961884 -4.8689194 -0.92153972 7
-12.111405 -9.5170536 -0.7183165 3
-12.611813 -9.9102707 -0.37239403 3
-12.483702 -9.8096018 0.7403971 2
-12.897308 -10.13461 1.5303019 2
-12.841269 -10.090575 2.295243 10
-5.159164 -4.0540333 -1.3946717 4
-5.9632721 -4.6606965 -1.2434645 1
-6.4899979 -5.0723681 -1.157642 3
-12.892415 -10.076286 1.5265862 8
-4.7441897 -3.7079022 -1.4267008 2
-5.179008 -4.0477414 -1.3971667 5
-5.9459043 -4.6187673 -1.2369797 5
-6.4831228 -5.036078 -1.1537451 4
-6.8915787 -5.3533654 -1.0205001 5
-12.93012 -10.044094 1.5275151 8
-4.7490239 -3.6890328 -1.4248564 4
-18.565664 -14.421773 3.3039699 7
-5.1770911 -4.0215545 -1.3934243 5
-18.584263 -14.436221 3.8662505 5
-6.4839272 -5.0059285 -1.15124 6
-6.912149 -5.3365378 -1.0211971 7
-7.8622966 -6.0701013 -0.92669004 2
-12.950912 -9.9987764 0.37986791 12
-15.685186 -12.109778 1.8487355 3
-4.7383819 -3.6582766 -1.4184008 6
-5.1905484 -4.0073729 -1.3938402 5
-5.9716072 -4.5854883 -1.2369797 3
-6.4168978 -4.9274187 -1.1370443 4
-7.8686848 -6.0422196 -0.92557532 4
-12.996406 -9.9797029 0 12
-12.969116 -9.9587488 0.37963578 6
-15.686828 -12.045629 1.8452055 3
-3.9798265 -3.0560362 0.58679336 2
-4.7448559 -3.6434884 -1.4174784 6
-5.1979189 -3.9913874 -1.3930085 5
-5.9734311 -4.5571284 -1.2343857 5
-6.4071522 -4.8880143 -1.1325908 4
-6.9364529 -5.2918172 -1.0202678 7
-7.8844619 -6.0150528 -0.92520374 4
-10.672136 -8.1417685 -0.9386431 2
-13.048366 -9.9545927 0 8
-13.025774 -9.9373579 0.38037854 6
-12.927778 -9.8625975 0.75828505 2
-4.794961 -3.6580737 -1.4290065 2
-5.1855474 -3.9560521 -1.3863553 5
-5.9940081 -4.5431094 -1.2356826 5
-6.4035349 -4.8535066 -1.1292506 4
-6.9451265 -5.2640014 -1.0191063 7
-7.9064927 -5.9926615 -0.92557532 4
-10.7072 -8.1154346 -0.93948019 2
-13.151298 -9.9679184 0 4
-12.862523 -9.7490444 0.37471512 6
-12.961883 -9.8243523 0.75847149 2
-4.8343453 -3.6641526 -1.4373065 2
-5.9980021 -4.521461 -1.2340615 5
-6.4130573 -4.834341 -1.1286939 3
-6.9620576 -5.2481928 -1.0195709 7
-10.761867 -8.1125946 -0.94240993 2
-12.785818 -9.6383057 0.37174413 6
-12.934914 -9.7506981 0.75539696 2
-5.1785645 -3.9037461 -1.3784546 3
-5.9829617 -4.4823451 -1.2282251 3
-6.96806 -5.220366 -1.0181772 7
-7.9286847 -5.9400516 -0.92427486 2
-10.787488 -8.0818243 -0.94254953 2
-12.667142 -9.4900331 0.36747333 5
-12.957392 -9.7074833 0.75502425 2
-3.9858572 -2.9861443 0.4646455 1
-4.8874426 -3.6615987 -1.4469901 6
-5.1838627 -3.883672 -1.3767914 3
-6.3963203 -4.7641993 -1.1209003 4
-6.9842033 -5.202075 -1.0184094 7
-12.566914 -9.3602686 0.36380604 5
-12.659196 -9.4290047 0.7361114 2
-4.9007692 -3.6502616 -1.4479123 9
-3.9834824 -2.9670346 -1.0557756 1
-6.4143744 -4.7498541 -1.1217353 6
-7.0002999 -5.183733 -1.0186417 7
-18.343449 -13.583352 1.0644314 5
-13.118879 -9.714551 1.1414949 4
-13.258264 -9.8177652 1.9292632 11
-4.2102742 -3.1177149 -1.2413312 1
-12.89719 -9.5503893 2.2554395 3
-4.2653108 -3.1584694 -1.1281289 3
-13.389311 -9.9148054 2.7372429 2
-6.99965 -5.151165 -1.0163187 7
-12.531469 -9.222127 0.72558355 2
-13.191342 -9.7077389 1.9153253 8
-4.8840947 -3.5942907 -1.4368454 6
-12.933446 -9.5179491 2.2568312 6
-4.1501894 -3.0541968 -1.0952789 6
-5.6211314 -4.1366887 -1.3149502 5
-6.014255 -4.3969355 -1.22401 5
-6.4416714 -4.7094135 -1.121457 6
-7.0206094 -5.1326666 -1.0170156 10
-12.610375 -9.219264 -0.7284717 3
-12.927613 -9.4511919 0 4
-4.7466316 -3.4701941 -1.5392622 2
-4.7838182 -3.4973807 -1.404106 4
-13.033632 -9.5287008 2.2690785 6
-6.0185275 -4.3743229 -1.2223887 3
-7.0236659 -5.104867 -1.0153894 10
-8.0428915 -5.8456492 -0.92761892 4
-13.027161 -9.4682636 -0.75101811 7
-12.884387 -9.3644943 0 3
-13.023246 -9.4654188 0.37378666 6
-13.23872 -9.6220274 1.1444247 4
-4.5825787 -3.3306615 -1.4830405 8
-13.39182 -9.7333021 2.3266959 3
-13.467673 -9.7884321 3.136847 5
-6.0250821 -4.3518224 -1.2210919 5
-4.0298862 -2.9107237 -0.69864905 3
-7.0275116 -5.0758615 -1.0137634 7
-8.0537462 -5.8170948 -0.92687583 4
-12.802548 -9.2470798 -0.73648405 10
-13.250646 -9.5707331 -0.37949651 10
-12.725669 -9.1915512 0 3
-12.928091 -9.3377581 0.37025863 5
-12.65193 -9.1382914 0.7278195 4
-13.111949 -9.4705553 1.1310315 4
-4.7775197 -3.4507277 -1.5428078 8
-6.0243855 -4.3257723 -1.2184979 5
-6.4688411 -4.6449108 -1.1192303 4
-7.0303621 -5.0481076 -1.0121373 7
-8.0893688 -5.8085208 -0.92910522 4
-12.768276 -9.1681814 -0.73303688 10
-13.212352 -9.4870472 -0.37763965 10
-12.720417 -9.1338167 0 3
-12.975227 -9.316782 0.3708621 12
-17.050512 -12.243014 1.4678158 14
-4.7698488 -3.4249601 -1.5372362 8
-6.0219855 -4.2986126 -1.2155797 5
-4.0808234 -2.9129727 -0.58632874 5
-4.1978393 -2.996501 -0.48118028 5
-11.216004 -8.0062065 -0.96361595 2
-12.912531 -9.2172203 -0.73983806 10
-13.163936 -9.396678 -0.37550429 6
-12.750758 -9.1017437 0 3
-13.250505 -9.4584732 2.2880058 6
-4.0231962 -2.8718371 0.93131512 0
-4.993865 -3.5410895 -1.0057958 1
-6.5205245 -4.6236258 -1.1234053 1
-8.1350651 -5.768477 -0.93040574 7
-11.187394 -7.9328465 -0.95901203 7
-12.919378 -9.1609755 -0.36770543 3
-13.417682 -9.5143166 3.099076 1
-4.965631 -3.4989738 -0.99801397 3
-6.4726934 -4.5609078 -1.1128281 5
-4.1281629 -2.9088619 -0.47114792 11
-11.215775 -7.9030647 -0.95943052 7
-4.2633796 -3.0041406 -1.1085852 4
-13.370744 -9.4215384 2.6873097 2
-4.7941718 -3.3781571 -1.1049879 1
-4.964066 -3.4771698 -0.99574429 5
-6.4886465 -4.5450897 -1.1133848 6
-8.1860943 -5.734097 -0.93244928 7
-5.0264378 -3.520859 -1.304438 5
-13.190096 -9.2392406 2.6458073 2
-4.7665606 -3.3388233 -1.0964708 5
-4.9257689 -3.4286008 -0.98601705 5
-8.2455673 -5.7393594 -0.9372797 4
-11.225081 -7.813262 -0.95636129 7
-13.020388 -9.062892 0 15
-13.005628 -9.052618 1.8530684 2
-13.176957 -9.1718731 2.637701 7
-4.8151617 -3.3516123 -1.1053581 4
-13.308236 -9.2632504 3.0550096 3
-7.061852 -4.8862138 -1.0042391 10
-8.2320852 -5.6959171 -0.93393564 7
-11.2567 -7.7886987 -0.95719838 9
-13.032487 -9.017395 0 15
-13.713285 -9.488452 0.77766377 2
-13.207278 -9.1383371 1.8781568 5
-13.308009 -9.2080336 2.6587768 5
-4.8600593 -3.3627563 -1.1135048 1
-6.5093298 -4.4770851 -1.1103231 5
-7.070559 -4.8630958 -1.0035421 10
-8.2479601 -5.6729059 -0.93393564 7
-11.303063 -7.7741914 -0.95929104 9
-13.240971 -9.1070747 -0.74943429 10
-13.121884 -9.0251675 0 11
-13.283264 -9.1361637 2.6487253 7
-13.461783 -9.2589483 3.0783391 3
-7.0751166 -4.8353696 -1.0021483 10
-8.2729759 -5.654026 -0.93486446 7
-11.281607 -7.7102246 -0.95552421 19
-13.210205 -9.0282927 -0.74617344 7
-11.03208 -7.53969 -0.3102355 10
-13.236991 -9.0465994 2.6341343 2
-4.1166034 -2.7955415 -0.58191502 3
-8.3061876 -5.6406436 -0.93672234 7
-11.04365 -7.4996247 -0.93348116 9
-11.05771 -7.5091729 -0.31032836 10
-13.177433 -8.9486542 0.74281943 12
-4.4506454 -3.0223858 0.88388109 1
-6.5242968 -4.4023514 -1.1061479 5
-5.9559646 -4.0188622 -0.84023416 2
-8.3459978 -5.6315675 -0.93932331 7
-7.0947781 -4.7567143 -0.99889606 7
-8.3659792 -5.608995 -0.93969488 4
-13.410803 -8.9913111 0 8
-13.407474 -8.9890795 3.0413084 1
-12.990452 -8.6602783 2.1942034 6
-13.341017 -8.8939877 3.0209417 3
-13.263817 -8.7857914 -0.3693766 6
-13.383732 -8.865222 3.0246449 1
-7.1186037 -4.6849475 -0.99657309 5
-7.7931805 -5.1289048 -0.87039757 2
-11.166224 -7.3487959 -0.62337947 8
-13.23638 -8.7112226 -0.36789113 9
-13.254008 -8.7228241 2.9894657 8
-5.0944486 -3.3299057 -0.85535794 5
-7.133287 -4.66256 -0.99657309 10
-7.7392464 -5.0586357 -0.86259454 6
-13.365775 -8.7363272 -0.37072286 13
-13.250091 -8.6607122 2.9824302 9
-5.0954227 -3.3102722 -0.85396618 5
-7.1512761 -4.6458697 -0.99726993 7
-7.7817307 -5.0554481 -0.86575294 11
-13.261037 -8.6151123 2.9794676 9
-11.339022 -7.3215156 -0.62943536 5
-13.185897 -8.5140285 2.2058938 18
-13.28009 -8.5748482 2.9783568 6
-8.5874758 -5.5109463 -0.95195663 7
-5.9641986 -3.8274782 -0.49555001 4
-13.124614 -8.4226189 2.1916983 9
-13.318871 -8.5472813 2.9816895 4
-7.1865978 -4.5836592 -0.99680537 10
-8.6213017 -5.498723 -0.95400023 7
-11.325664 -7.2235832 -0.93934065 13
-18.015579 -11.490456 3.0030775 12
-13.165382 -8.3969679 2.9420669 4
-7.1892138 -4.5536203 -0.9951793 10
-8.6452618 -5.4758754 -0.95474344 7
-11.255599 -7.1292534 -0.93166751 11
-13.692128 -8.6725416 -0.37629342 10
-17.850809 -11.306633 2.9696758 11
-17.239695 -10.919557 3.8448687 2
-7.202693 -4.5322685 -0.9951793 10
-8.6816969 -5.4629264 -0.95697278 7
-11.244618 -7.0756359 -0.92901671 11
-11.258149 -7.0841498 -0.620305 5
-17.847019 -11.230172 -0.48956212 17
-17.885954 -11.254672 2.969954 11
-13.141573 -8.2692871 2.9254034 4
-7.2262158 -4.5171957 -0.99657309 10
-8.7181301 -5.4498091 -0.95920217 7
-11.258796 -7.0380106 -0.92845863 9
-17.922628 -11.203653 2.970511 5
-7.2372317 -4.499526 -0.99657309 10
-8.7584791 -5.4453149 -0.96217477 4
-13.683115 -8.5070562 1.5031774 8
-17.926401 -11.145188 2.9666142 17
-7.2530231 -4.477809 -0.99680537 10
-8.7721548 -5.4156775 -0.96180314 7
-13.686538 -8.4496775 -1.1247534 12
-13.719942 -8.4702997 1.5042921 16
-17.952904 -11.083609 2.9652224 17
-8.7991257 -5.3984485 -0.96310365 7
-13.713483 -8.4135094 -1.1250324 9
-18.319632 -11.239479 2.0051653 4
-13.71616 -8.4151525 2.2615631 10
-16.665285 -10.156571 1.3647157 18
-18.332491 -11.172641 2.0029361 13
-14.058435 -8.50739 -0.76629746 3
-18.808367 -11.381786 0.51040542 10
-16.700523 -10.106236 1.3649946 18
-18.399868 -11.134586 2.0064659 9
-13.728819 -8.3079243 2.636404 10
-8.8997307 -5.3517289 -0.96886295 7
-14.065018 -8.4578028 -0.76536578 3
-17.652699 -10.615204 1.9217486 4
-18.709167 -11.250497 3.5867546 8
-8.9068756 -5.3243241 -0.96811986 7
-15.583619 -9.315527 -1.2695678 3
-14.057961 -8.4035234 -0.76378191 3
-16.040833 -9.5888376 2.6264751 13
-8.9304075 -5.3003802 -0.96886295 4
-18.642189 -11.064522 -1.0109537 6
-17.016581 -10.099689 1.8461344 10
-16.03511 -9.5171671 2.6206298 13
-8.9434586 -5.2744093 -0.96867716 7
-16.960669 -10.002563 1.8370311 14
-16.882021 -9.8887854 1.8253268 14
-16.86137 -9.8096151 1.819939 14
-17.147722 -9.908226 -0.92356306 11
-17.121201 -9.7618027 -0.91909111 22
-17.064953 -9.6666861 -0.91461909 10
-19.387789 -10.610106 4.1640711 3
-12.797899 -6.9602675 0.67937273 3
-19.35334 -10.525511 4.1507401 13
-11.89469 -6.4207082 0.9452002 9
-13.159092 -7.052887 0 10
-11.982268 -6.4221439 0.95064121 9
-18.488794 -9.4327106 0 22
-11.621422 -5.8882384 0 11
-12.333229 -6.2488904 1.2898976 20
-12.9309 -6.5035639 0.67499393 3
-12.261678 -6.0760851 1.2767068 7
-11.876175 -5.7616401 0 9
-12.123091 -5.8344502 0 9
-13.607233 -6.2643857 0.3477906 21
-16.927168 -7.7284331 0 23
-12.479865 -5.6979289 0.63977683 5
-16.747805 -7.5865746 0 28
-12.027686 -5.3249154 0.61341059 4
-11.82718 -5.2361469 2.4369721 1
-12.146783 -5.3345971 2.4995534 17
-12.561019 -5.3862557 -0.63735455 8
-16.956167 -7.2114453 -0.85927796 19
-17.017628 -7.181531 -1.2916108 15
-17.020487 -7.1827378 0 5
-12.106264 -5.0666437 0.6120131 3
-12.096379 -5.0228562 0.61080194 6
-7.4764791 -3.0770051 -0.94546676 5
-7.2812676 -2.9966643 -0.73458952 2
-12.767035 -5.2543764 0 3
-12.126879 -4.9909143 0.61154729 6
-9.3526001 -3.8186309 -0.9424817 7
-12.899692 -5.2668953 1.2999299 8
-12.911843 -5.2718568 2.6276786 4
-9.3601971 -3.7893693 -0.94211006 9
-12.444309 -5.0379372 0.62608129 15
-5.202682 -2.1062467 -1.4693649 12
-9.371933 -3.7655931 -0.94229585 9
-12.925838 -5.10466 1.6251806 8
-6.1641235 -2.4343297 -1.2486658 6
-5.0928965 -2.0112817 1.0316675 5
-12.921463 -5.0560637 1.6226254 10
-5.1229839 -2.0045822 1.0364815 4
-19.18779 -7.4463062 0 22
-5.1438813 -1.996213 -1.5821584 6
-6.1729636 -2.3955743 -1.2475549 6
-6.5974789 -2.5391443 -1.1614316 3
-9.4688749 -3.6442463 -0.94656891 7
-12.415842 -4.7386675 1.8677032 7
-13.007066 -4.9175558 1.2973288 8
-12.462161 -4.7115445 1.872435 10
-13.616217 -5.1478562 2.391602 9
-14.25694 -5.3900928 2.8717093 6
-13.03007 -4.8847084 1.2982578 14
-13.016815 -4.8797388 2.6191618 1
-12.943933 -4.8086653 -0.96556914 7
-4.9538903 -1.8403679 -1.6490347 13
-13.094908 -4.8647523 1.3032739 16
-5.2016611 -1.9324148 -1.4526502 11
-5.323298 -1.9776027 -1.345544 7
-13.60679 -5.0549159 2.384793 9
-13.012812 -4.8342538 2.6154587 1
-12.968544 -4.7766366 -0.96640623 14
-12.833475 -4.7268877 -0.31752369 15
-4.9608016 -1.8271865 -1.6496304 21
-12.964557 -4.7751679 1.2889686 82
-5.2379017 -1.9292493 -1.4612609 10
-12.916941 -4.7141519 -0.31924129 31
-4.7915506 -1.7487187 -1.7235098 13
-4.9733758 -1.8150774 -1.6520135 8
-12.997375 -4.7435069 1.2908264 64
-5.2508736 -1.9163529 -1.4632869 20
-6.34548 -2.2957788 -0.78912789 7
-12.958259 -4.6882658 -0.31993762 16
-12.920376 -4.6745596 0 12
-4.7928514 -1.7340417 -1.7222294 24
-4.9766297 -1.8005322 -1.6514176 8
-13.091091 -4.7363238 1.2988151 28
-5.2270942 -1.8911496 -1.4551828 22
-12.999275 -4.6569762 -0.32058752 16
-12.93688 -4.6346231 0 15
-4.7911406 -1.7164209 -1.7196684 19
-4.9696803 -1.7803825 -1.6472474 7
-5.1527457 -1.8459655 -1.5694792 6
-13.004673 -4.6589098 1.2887828 38
-5.2348309 -1.8753725 -1.4556893 24
-6.1650972 -2.2086394 -1.2338537 6
-14.258174 -5.1079755 2.8535643 19
-21.415724 -7.6047463 -0.52762783 13
-12.964849 -4.6038318 0 12
-4.7959146 -1.7030345 -1.7196684 11
-5.1415749 -1.8257787 -1.5645177 9
-6.182353 -2.1953602 -1.2360754 16
-18.16758 -6.3906875 -0.4471328 20
-12.972792 -4.5633521 0 9
-6.1944017 -2.1789632 -1.2371863 6
-13.899859 -4.8894606 2.7761707 4
-18.178583 -6.3411303 -0.44699353 10
-12.184009 -4.2500772 0 5
-4.8178744 -1.6805915 -1.7241501 6
-4.964591 -1.7317697 -1.6406943 5
-5.1444306 -1.7945021 -1.5623126 11
-5.2302628 -1.8244424 -1.4501178 7
-12.913689 -4.5046077 1.5993952 8
-13.940449 -4.8627663 2.7817254 13
-22.734316 -7.8502541 -0.55840534 7
-12.31451 -4.2522521 0 11
-4.7944751 -1.6555523 -1.7139063 19
-4.9790301 -1.71928 -1.6436729 5
-5.1409569 -1.7751939 -1.5595562 13
-5.2487702 -1.8124223 -1.4536633 18
-12.920266 -4.461422 1.598466 8
-18.940924 -6.481236 -1.3998729 18
-17.95672 -6.1444592 -0.44063377 14
-4.7990794 -1.6421568 -1.7139063 17
-4.967555 -1.699806 -1.6383113 7
-5.1604462 -1.7658098 -1.5639664 9
-5.2501497 -1.7965047 -1.4526502 24
-18.97172 -6.4252639 -0.93409091 22
-12.367941 -4.1887236 0 8
-4.6513171 -1.575289 -1.7873973 10
-4.804215 -1.6270717 -1.7139063 19
-5.1568632 -1.7465051 -1.56121 22
-5.2667637 -1.7837257 -1.4556893 24
-18.350143 -6.2147512 2.2656355 10
-17.009329 -5.7110538 -0.83673161 4
-4.5106421 -1.5144935 -1.8579789 13
-12.358009 -4.1493263 0 8
-4.6536441 -1.562508 -1.7867132 22
-4.7994776 -1.611473 -1.7107052 19
-5.1541281 -1.7305505 -1.5590049 25
-5.2787523 -1.7723943 -1.4577153 24
-18.355055 -6.1628947 2.2642419 10
-20.472765 -6.806416 -1.006109 6
-4.5027404 -1.4969901 -1.8528867 24
-12.423406 -4.1303105 0 12
-4.6529093 -1.5469155 -1.7846612 28
-4.8042374 -1.5972263 -1.7107052 19
-5.2913313 -1.7591667 -1.4597414 26
-17.104641 -5.6866431 2.107903 13
-12.558099 -4.1750908 1.8599094 5
-12.953849 -4.3066626 2.2427754 4
-17.911016 -5.8992414 -0.87940198 15
-17.957937 -5.9146953 -0.43896258 19
-12.326612 -4.0599408 0 11
-4.6554255 -1.5333289 -1.783977 33
-12.313796 -4.0557194 0.30099761 8
-4.8032794 -1.5820267 -1.7087845 19
-12.871393 -4.2393718 2.5532477 12
-7.3061848 -2.3837974 -0.53740388 6
-17.923624 -5.8479614 -0.87921566 15
-17.98579 -5.8682446 -0.43924114 14
-12.417759 -4.0515571 0 11
-4.656116 -1.5191566 -1.782609 33
-4.8094802 -1.5691948 -1.7094246 19
-4.9714065 -1.6220267 -1.631758 13
-13.965034 -4.5563879 2.7676537 6
-6.4344301 -2.0770237 -1.1108499 5
-8.2195196 -2.6532476 -1.0100465 10
-12.428628 -4.011941 -0.91325176 11
-18.038872 -5.8229184 -0.88396722 20
-18.08025 -5.8362751 -0.441098 9
-12.379038 -3.9959335 0 11
-4.6662316 -1.5062521 -1.7846612 36
-4.8089771 -1.55233 -1.7075039 19
-4.9837456 -1.608745 -1.6341408 18
-19.701895 -6.3597398 2.4210453 13
-13.904465 -4.4883385 2.7528415 10
-8.2349243 -2.631268 -1.0109757 10
-17.245371 -5.5103354 -0.8442781 4
-18.089865 -5.7801728 -0.44091228 14
-4.5252614 -1.4459363 -1.8550692 10
-18.553871 -5.9284348 0 19
-4.6670995 -1.4912571 -1.783293 36
-4.8171711 -1.5392089 -1.7087845 19
-4.9866781 -1.5933707 -1.6335452 21
-12.578973 -3.9806221 -0.92259914 13
-12.95028 -4.0981226 -0.63344151 11
-12.932267 -4.0924225 -0.31492409 10
-4.5239534 -1.4316072 -1.8528867 24
-12.607782 -3.9897389 0 12
-4.6587029 -1.4742488 -1.7785047 33
-4.8178377 -1.5246072 -1.7075039 22
-4.9856477 -1.5777106 -1.631758 22
-12.669482 -3.9655185 -0.92831916 18
-12.955465 -4.0550303 -0.63306886 11
-12.946969 -4.052371 -0.31497052 15
-4.5284286 -1.4173876 -1.8528867 31
-12.654611 -3.9608636 0 9
-4.6668992 -1.4607285 -1.7798729 36
-4.8207955 -1.5088978 -1.7068638 29
-4.9887576 -1.5614696 -1.6311622 22
-5.1776648 -1.620597 -1.5556973 21
-16.965252 -5.3100843 2.0788653 9
-13.880092 -4.3444362 2.7402513 6
-12.951472 -4.0141039 -0.6323235 11
-12.730965 -3.945761 -0.30944633 18
-4.5323691 -1.404736 -1.8528867 30
-4.6691647 -1.4471337 -1.7791888 33
-4.8249903 -1.4954294 -1.7068638 30
-4.9930987 -1.5475318 -1.6311622 22
-5.1784973 -1.6049933 -1.5545948 21
-14.490125 -4.4909849 1.4153017 7
-21.36685 -6.6223168 2.6159463 22
-13.886537 -4.3039122 2.7391403 6
-16.62538 -5.1051087 -1.2161343 14
-12.843528 -3.9438257 -0.62654716 5
-12.934299 -3.9716988 -0.31413493 10
-4.5342493 -1.3923192 -1.852159 30
-4.6693435 -1.4338021 -1.7778207 33
-4.8216434 -1.4805684 -1.7043028 30
-4.9916577 -1.5327742 -1.629375 22
-21.070786 -6.4701467 2.5776165 15
-13.901513 -4.2686982 2.7398808 6
-6.5357938 -1.9844801 -1.1221983 5
-12.653296 -3.8419535 -0.9246918 6
-12.7813 -3.8808193 -0.62291366 8
-12.851053 -3.9019988 -0.31181386 7
-4.5368185 -1.3775262 -1.8514316 30
-4.6702285 -1.4180337 -1.7764527 30
-4.8280845 -1.465964 -1.7049431 30
-4.9946218 -1.51653 -1.6287793 22
-10.95227 -3.3254664 1.3385206 1
-12.725784 -3.8227603 -0.92915624 9
-19.476143 -5.8505335 -0.94834554 11
-18.042456 -5.4198608 -0.43738428 4
-4.5426702 -1.3645948 -1.852159 30
-4.6708155 -1.4030889 -1.7750845 30
-4.828783 -1.4505417 -1.7036625 30
-4.9936137 -1.5000559 -1.626992 23
-12.745974 -3.790051 -0.9298538 20
-20.04966 -5.9618225 -0.97545701 6
-17.971277 -5.3438096 -0.43529528 9
-4.550035 -1.3529656 -1.8536141 31
-4.6801195 -1.3916467 -1.7771366 33
-4.8346314 -1.4375913 -1.7043028 30
-14.449274 -4.2965322 1.406384 9
-12.797357 -3.7640407 -0.93278354 9
-20.347088 -5.9846163 -0.98905939 6
-17.95636 -5.2814403 -0.43455252 4
-4.5665398 -1.3431401 -1.8587064 33
-4.6752133 -1.3751037 -1.7737164 33
-4.8334222 -1.4216372 -1.7023821 30
-14.440944 -4.2474632 1.4043404 9
-12.821226 -3.7321949 -0.93376017 22
-20.087498 -5.8473701 -0.97564334 6
-17.976797 -5.2329559 -0.43469179 4
-4.5774274 -1.3324662 -1.8616163 31
-4.6844478 -1.3636194 -1.7757686 30
-12.574542 -3.6603863 0.30406144 8
-4.8391924 -1.4086647 -1.7030224 30
-14.410683 -4.1948776 1.4002532 16
-5.9787302 -1.7403785 -1.323566 10
-12.764499 -3.6770463 -0.92887723 29
-20.121027 -5.7962284 -0.97648191 6
-12.496335 -3.5997968 -0.30192605 10
-4.581131 -1.3196782 -1.8616163 30
-4.6864319 -1.3500121 -1.7750845 33
-4.8467488 -1.3961942 -1.7043028 30
-14.374504 -4.1408377 1.3956085 14
-12.74465 -3.6304104 -0.92664498 33
-20.065125 -5.715703 -0.97294158 18
-12.487731 -3.5572252 -0.30146185 10
-4.5814433 -1.305059 -1.8601614 34
-4.6922245 -1.3366158 -1.7757686 33
-4.8472257 -1.380769 -1.7030224 30
-14.421199 -4.1079884 1.3989526 11
-20.006374 -5.6989679 2.4326603 13
-9.268259 -2.6086817 -1.1259649 5
-12.815529 -3.607111 -0.93096989 20
-20.069521 -5.6488485 -0.97228938 18
-12.498845 -3.5179758 -0.30146185 10
-4.5873137 -1.2911639 -1.8608888 34
-4.6964002 -1.3218679 -1.7757686 33
-4.8551869 -1.3665607 -1.7043028 30
-5.0135188 -1.4111254 -1.6252047 25
-14.422532 -4.0594244 1.3978379 9
-19.951519 -5.6156359 2.4238331 13
-6.326539 -1.7806934 -1.2382972 6
-12.729451 -3.5445487 -0.92399424 38
-18.079773 -5.0343599 -0.87520945 15
-12.506694 -3.4825215 -0.30141541 10
-4.594491 -1.279348 -1.8623439 34
-12.039949 -3.3525553 0 11
-4.7018838 -1.3092518 -1.7764527 30
-4.8589845 -1.3529968 -1.7043028 30
-5.0156012 -1.3966073 -1.624609 23
-14.393527 -4.007915 1.3939365 9
-11.081371 -3.0856366 1.6166348 6
-5.9817119 -1.6656232 -1.3198236 6
-6.3333812 -1.7635465 -1.2386676 13
-12.905341 -3.552299 -0.93599236 11
-12.674333 -3.4887121 -0.61303794 16
-4.6018591 -1.2666987 -1.8637987 33
-12.040203 -3.3141627 0 11
-4.7021241 -1.2942975 -1.7750845 33
-4.862978 -1.3385737 -1.7043028 29
-5.0160418 -1.3807058 -1.6234175 23
-14.380396 -3.9583197 1.3915213 11
-5.9998307 -1.6515017 -1.3227344 5
-6.3461657 -1.7468331 -1.2401488 13
-7.3244305 -1.9954962 -1.0669011 5
-12.966571 -3.5326629 -0.93975925 9
-12.687277 -3.4565706 -0.61322427 13
-4.6051593 -1.2546474 -1.8637987 33
-4.7073097 -1.2824776 -1.7757686 33
-4.8646369 -1.3253405 -1.7036625 29
-14.359969 -3.9122856 1.3885487 11
-19.741039 -5.378325 2.3927045 4
-6.360198 -1.7327969 -1.2420003 13
-12.928833 -3.4812059 -0.93627143 29
-12.693619 -3.4178724 -0.61303794 13
-12.590079 -3.3899934 -0.30271521 2
-4.6142583 -1.242431 -1.8659812 31
-4.7110939 -1.268505 -1.7757686 30
-4.8667183 -1.3104082 -1.7030224 29
-14.348438 -3.8634477 1.3863194 9
-11.242257 -3.0270801 1.3615185 6
-6.3653111 -1.713918 -1.2420003 13
-6.7571516 -1.7979405 -1.1487861 6
-7.3380561 -1.9525073 -1.0671794 6
-12.888975 -3.4294939 -0.93264407 13
-12.728802 -3.3868749 -0.61424911 13
-17.660595 -4.6991248 -0.42429337 9
-4.6143241 -1.2277776 -1.8645263 34
-12.446924 -3.311873 0 8
-4.7166529 -1.2550052 -1.7764527 30
-4.8760781 -1.297425 -1.7049431 29
-5.02951 -1.3382503 -1.6240132 23
-14.342519 -3.8162522 1.3846474 9
-11.24351 -2.9916692 1.3605894 6
-6.3760662 -1.6965413 -1.2431113 13
-7.3441544 -1.9294425 -1.0671794 15
-12.913194 -3.3925302 -0.93362063 9
-12.818603 -3.3676794 -0.61806899 11
-13.944901 -3.6635783 -0.33474612 2
-4.6109509 -1.2113804 -1.8616163 33
-17.867668 -4.6941605 0 23
-4.7187552 -1.2397026 -1.7757686 33
-4.8764648 -1.2811358 -1.7036625 29
-5.0318437 -1.3219566 -1.6234175 22
-14.333252 -3.7656052 1.3826036 9
-11.254775 -2.9568334 1.3608216 6
-6.3889685 -1.6784979 -1.2445924 13
-7.3533478 -1.9099215 -1.0677361 15
-12.820272 -3.3298728 -0.9262265 9
-12.889834 -3.3479407 -0.6210503 11
-13.935723 -3.6195946 -0.33428189 2
-4.5872684 -1.1914738 -1.8507042 27
-13.912379 -3.6135311 0 3
-4.7240176 -1.2269925 -1.7764527 30
-4.8763561 -1.2665601 -1.7023821 30
-5.0355158 -1.3078995 -1.6234175 23
-14.326365 -3.7210579 1.3809316 9
-19.722727 -5.1226816 2.3829479 12
-6.4031429 -1.66312 -1.246444 13
-7.3644071 -1.8908603 -1.0685712 5
-12.792803 -3.284637 -0.9235757 18
-12.939769 -3.3223712 -0.62300682 8
-13.93222 -3.5771897 -0.33395693 2
-4.5815549 -1.1763445 -1.8470668 27
-4.725605 -1.2133304 -1.7757686 30
-4.8798733 -1.2529398 -1.7023821 30
-5.0483942 -1.2962086 -1.6263962 35
-18.569052 -4.7677269 2.2419407 10
-6.405858 -1.6447464 -1.2460737 13
-12.664623 -3.2140541 -0.9136703 20
-12.945124 -3.2852402 -0.6228205 2
-13.922775 -3.5333505 -0.33349273 2
-4.7326179 -1.2010535 -1.7771366 28
-4.8833532 -1.2393074 -1.7023821 30
-5.046443 -1.2806966 -1.624609 42
-5.2158012 -1.3236767 -1.543018 12
-14.317969 -3.6336439 1.3781449 9
-18.649685 -4.7329555 2.2500715 14
-19.740089 -5.0096803 2.8622344 22
-6.4142356 -1.627818 -1.2468143 13
-12.62517 -3.1665401 -0.91018248 24
-13.192597 -3.3088577 -0.63427997 2
-17.475857 -4.3831491 -0.41830498 13
-4.8849578 -1.2252045 -1.7017419 29
-5.0425916 -1.2647409 -1.6222259 33
-5.2269368 -1.3109769 -1.5452231 10
-18.626221 -4.6716738 2.2456579 14
-19.76745 -4.9579077 2.8641827 11
-6.4206638 -1.6103776 -1.2471846 13
-12.65055 -3.1306953 -0.91129863 22
-17.719616 -4.3851628 -0.85126561 4
-17.598232 -4.355123 -0.42090458 17
-5.0446873 -1.2484342 -1.6216302 33
-5.2310295 -1.2945492 -1.5452231 7
-14.310286 -3.5414386 1.3753581 9
-18.723721 -4.6336536 2.2556467 14
-19.794464 -4.8986359 2.8658528 5
-20.665194 -5.1141195 3.4975884 4
-6.4180593 -1.5883095 -1.2457033 11
-6.8288813 -1.6684921 -1.1549467 5
-17.464376 -4.2670493 -1.2571512 15
-17.501602 -4.2761445 -0.84017879 13
-17.574171 -4.2938752 -0.42002258 17
-4.6058555 -1.125343 -1.8514316 30
-18.095703 -4.4213009 0 5
-4.7339931 -1.1566507 -1.7737164 17
-14.312992 -3.4970756 1.374615 9
-17.060478 -4.1683655 2.0537767 6
-20.622763 -5.038734 3.4878612 4
-6.4380178 -1.5729929 -1.2486658 6
-17.713581 -4.2722774 -1.2741717 15
-17.434584 -4.204987 -0.8363589 18
-17.512974 -4.2238932 -0.41825855 17
-4.6109858 -1.1121076 -1.852159 31
-18.748404 -4.5218625 0 19
-4.7447119 -1.1443607 -1.7764527 23
-4.8977175 -1.1812636 -1.7023821 19
-18.534607 -4.4702978 2.229629 14
-6.4407458 -1.5534213 -1.2482954 6
-16.881187 -4.021668 -1.2134836 3
-17.47024 -4.1620002 -0.41695875 25
-4.6086369 -1.0979327 -1.8499768 31
-17.867947 -4.2567477 0 5
-4.7515454 -1.1319784 -1.7778207 20
-4.90837 -1.1693393 -1.7049431 26
-16.865164 -3.9681129 -1.2115303 14
-16.862713 -3.9675364 -0.80784988 17
-17.246288 -4.057786 -0.41134173 20
-4.6098709 -1.0846316 -1.8492492 30
-17.807732 -4.1898851 0 11
-4.758347 -1.1195657 -1.7791888 24
-4.9042387 -1.1538918 -1.7023821 30
-5.2568226 -1.2368493 -1.5485307 4
-14.297792 -3.3640501 1.370342 9
-28.833704 -6.699203 -2.0699537 22
-17.268764 -4.0122128 -0.82676274 18
-16.856352 -3.9163933 -0.40177891 20
-4.6110673 -1.0713322 -1.8485217 30
-16.812191 -3.9061327 0 19
-4.7577939 -1.1054225 -1.7778207 23
-4.9092875 -1.1406205 -1.7030224 32
-5.0694757 -1.1778386 -1.6240132 23
-5.2471476 -1.2191186 -1.5446718 14
-14.307131 -3.3241091 1.370342 9
-21.591822 -5.0166292 2.5922513 5
-15.863518 -3.6332333 -1.1380072 9
-19.008631 -4.3535609 -0.90940177 5
-4.6107779 -1.0560099 -1.8470668 30
-17.454073 -3.9975193 0 21
-4.7557468 -1.0892123 -1.7757686 26
-4.9128461 -1.1251929 -1.7030224 32
-5.0768728 -1.1627599 -1.6252047 23
-5.2640691 -1.2056336 -1.5485307 21
-14.307797 -3.2769256 1.369413 9
-19.192877 -4.3957586 2.3025715 15
-15.893689 -3.5905447 -1.1394023 9
-15.90351 -3.5927634 -0.76033473 11
-15.879449 -3.5873277 -0.37796462 7
-4.6157084 -1.0427351 -1.8477943 30
-17.452202 -3.9426286 0 16
-4.7589579 -1.0750966 -1.7757686 28
-4.9143152 -1.1101934 -1.7023821 30
-5.0784388 -1.1472706 -1.624609 23
-5.277 -1.1921276 -1.5512872 22
-19.023697 -4.2976451 2.2807353 15
-16.611744 -3.7527606 3.2086859 4
-15.895247 -3.5471835 -1.1388441 9
-15.897264 -3.5476336 -0.75958949 11
-15.9044 -3.549226 -0.37833598 10
-4.612968 -1.02943 -1.8456119 30
-4.7525849 -1.0605869 -1.7723483 28
-4.9172049 -1.0973235 -1.7023821 29
-5.0832877 -1.1343867 -1.6252047 22
-5.289485 -1.1804016 -1.5540435 22
-14.312271 -3.1939268 1.3681126 9
-18.980598 -4.2357106 2.274231 3
-16.552456 -3.6938465 3.1953552 1
-15.865389 -3.4882357 -1.1359144 9
-15.896622 -3.4951026 -0.7590304 11
-15.89594 -3.4949527 -0.37787178 10
-4.616179 -1.0149338 -1.8456119 31
-4.7632351 -1.0472662 -1.7750845 33
-4.9150763 -1.0806507 -1.7004614 29
-5.0886912 -1.1188225 -1.6258005 23
-5.2969217 -1.164605 -1.555146 22
-18.993811 -4.1760645 2.274231 15
-16.622793 -3.6547618 2.7962549 13
-16.521748 -3.6325455 3.1872084 1
-17.879438 -3.878742 -1.2793337 3
-15.882892 -3.4456136 -0.7579124 3
-15.890007 -3.4471571 -0.37750039 7
-4.6171741 -1.0016437 -1.8448843 30
-4.756958 -1.0319682 -1.7716644 28
-4.9199262 -1.0673224 -1.7011017 29
-5.0899296 -1.1042026 -1.6252047 23
-13.814157 -2.996825 0.98844928 16
-5.298275 -1.1494008 -1.5545948 22
-18.803503 -4.0792069 2.2500715 14
-18.580902 -4.0309162 3.1237385 13
-17.632414 -3.8251526 3.3993926 11
-21.42337 -4.5849528 -1.5319917 20
-21.483625 -4.5978489 -1.024556 13
-18.537119 -3.967248 -0.44012314 14
-4.6181316 -0.98835599 -1.8441569 30
-4.756146 -1.0178933 -1.7702962 26
-4.9228878 -1.0535789 -1.7011017 29
-13.54033 -2.8978531 0.6457395 5
-5.0948606 -1.0903838 -1.6258005 21
-13.822473 -2.9582362 0.98844928 16
-5.3014641 -1.1346004 -1.5545948 21
-14.382438 -3.078078 1.3721998 4
-18.841034 -4.0322905 3.1655655 13
-16.380339 -3.5056617 3.1561029 1
-16.705692 -3.5265324 -1.592911 8
-21.410711 -4.5197511 -1.530178 15
-21.44165 -4.5262818 -1.0219474 27
-18.657681 -3.9385924 -0.44272274 4
-4.6154051 -0.97430116 -1.8419744 30
-4.7552924 -1.003831 -1.7689282 26
-13.534006 -2.856997 0.32114458 18
-4.9258108 -1.0398271 -1.7011017 29
-13.55619 -2.8616798 0.6461122 10
-5.0941501 -1.075363 -1.624609 22
-13.832632 -2.9200361 0.98858875 20
-5.2970877 -1.1182028 -1.5523897 21
-18.514027 -3.9082673 2.6593199 14
-16.378527 -3.4574685 3.1538808 1
-17.785637 -3.696183 -1.2702653 15
-21.451851 -4.4580898 -1.0217611 27
-21.486996 -4.4653935 -0.50952339 24
-4.618443 -0.95979756 -1.8419744 31
-4.7584224 -0.98888785 -1.7689282 28
-13.529212 -2.8116195 0.32081962 27
-4.9234877 -1.0231915 -1.6991808 29
-13.557288 -2.8174541 0.6457395 12
-5.1012411 -1.0601319 -1.6258005 22
-13.845643 -2.8773797 0.98886776 20
-5.2986917 -1.1011658 -1.5518384 21
-18.826714 -3.9125378 2.2486777 14
-17.643955 -3.6667387 3.3953195 13
-11.937096 -2.441649 -0.8520056 6
-17.750788 -3.6307991 -0.84493023 13
-18.897537 -3.8653586 -0.4478291 10
-4.6177859 -0.94453561 -1.8405195 30
-4.7596641 -0.97355586 -1.768244 28
-13.524266 -2.7662935 0.32049468 32
-4.9285345 -1.0080971 -1.6998212 29
-5.1008062 -1.043334 -1.624609 22
-13.85266 -2.8334644 0.98872828 20
-5.294591 -1.0829715 -1.5496333 20
-17.44351 -3.5679474 2.0821176 12
-17.742037 -3.629009 3.411983 20
-16.918144 -3.4174433 -1.2069265 13
-27.261164 -5.5067196 -1.2969759 21
-18.773655 -3.7922537 -0.44467244 19
-4.62008 -0.93325013 -1.8405195 30
-18.447407 -3.726352 0 12
-4.7583447 -0.96117944 -1.7668761 30
-13.525106 -2.7320538 0.32035542 32
-4.9346972 -0.99680245 -1.7011017 29
-5.1033401 -1.0308681 -1.624609 22
-13.859543 -2.7996094 0.98872828 20
-5.2953372 -1.0696511 -1.549082 19
-18.462008 -3.7293015 2.6470726 19
-17.95121 -3.626121 3.4504948 9
-11.954459 -2.375721 -0.85228461 8
-31.940001 -6.3474665 -1.5186199 16
-18.542297 -3.6849282 -0.43891618 14
-4.621161 -0.91836768 -1.839792 31
-18.425673 -3.6617513 0 18
-4.7558103 -0.94512665 -1.7648239 30
-13.531659 -2.6891594 0.32030898 32
-4.932229 -0.98018652 -1.6991808 29
-13.544127 -2.691637 0.64396936 7
-5.1009355 -1.0137137 -1.6228218 22
-13.868269 -2.7560542 0.98872828 16
-5.2873573 -1.0507615 -1.5457743 18
-18.002861 -3.5777254 2.1464651 23
-17.422714 -3.4624324 2.4964874 20
-18.004921 -3.5781348 3.4586413 9
-11.990417 -2.3480792 -0.85437727 10
-21.354736 -4.1818905 -1.0147735 6
-18.483839 -3.6196837 -0.43729138 9
-4.6218796 -0.90510106 -1.8390645 31
-16.926497 -3.3147097 0 4
-4.7621202 -0.93256432 -1.766192 30
-13.533231 -2.6502078 0.32016972 32
-4.9312286 -0.96568072 -1.6979005 29
-13.541789 -2.6518838 0.64350355 14
-5.1074934 -1.0001987 -1.6240132 23
-18.258411 -3.5755382 2.175735 20
-18.84144 -3.6897125 2.6982882 14
-18.134428 -3.5512588 3.4816003 9
-16.670839 -3.2163308 -1.5839933 12
-12.000845 -2.3153415 -0.85465634 12
-11.977857 -2.3109064 -0.56887686 10
-16.885967 -3.2578359 -0.39927214 11
-4.6243892 -0.89219052 -1.8390645 31
-16.874807 -3.2556827 0 14
-4.7647057 -0.91926199 -1.766192 30
-13.540579 -2.6124046 0.32016972 37
-4.932045 -0.95154709 -1.6972601 29
-13.568758 -2.6178412 0.64443517 22
-5.1065178 -0.98520833 -1.6228218 22
-17.903582 -3.4541657 2.1322947 13
-18.480236 -3.5654204 2.6451242 9
-17.2855 -3.3349183 3.3168149 21
-11.734022 -2.2235341 -0.83512449 38
-16.835777 -3.1902895 -0.39783308 11
-4.6254921 -0.87650585 -1.8383371 30
-16.824594 -3.1881702 0 14
-4.7677274 -0.90345871 -1.766192 28
-13.53738 -2.5652606 0.31989118 32
-4.9295888 -0.93413055 -1.6953396 29
-13.569511 -2.5713494 0.64406252 22
-5.1135077 -0.96898222 -1.6240132 23
-13.911853 -2.6362212 0.99012333 13
-18.158905 -3.4410148 2.1613324 13
-18.063856 -3.4230037 2.5838878 18
-19.051023 -3.6100664 3.1856685 14
-18.337301 -3.4748199 3.5164087 11
-11.954434 -2.2307365 -0.56710672 32
-22.240011 -4.1500587 -0.52526033 6
-4.6077762 -0.85982603 -1.8303348 27
-16.8354 -3.1415403 0 19
-4.7702322 -0.89014089 -1.766192 28
-13.548421 -2.5281796 0.31998405 37
-4.934041 -0.92070812 -1.6959798 29
-13.572712 -2.5327122 0.64387619 22
-5.1143174 -0.95434833 -1.6234175 22
-13.93289 -2.5999227 0.99110001 16
-14.393764 -2.6859233 1.7122936 9
-17.892282 -3.3387582 2.5580018 17
-18.515875 -3.4551227 3.0945568 13
-17.268839 -3.2224216 3.3097792 4
-11.966128 -2.2005124 -0.56738615 37
-21.389479 -3.9334204 -0.50492769 6
-4.6100116 -0.84775853 -1.8303348 28
-16.821928 -3.0934701 0 14
-4.7706976 -0.87730795 -1.7655079 30
-13.556962 -2.4930589 0.32003048 32
-4.9364347 -0.90778619 -1.6959798 27
-13.577332 -2.496805 0.64378303 24
-5.1167984 -0.94095421 -1.6234175 23
-13.967121 -2.5684853 0.9930532 20
-14.534118 -2.6727531 1.3787023 9
-17.804098 -3.2740867 2.1169629 13
-18.167822 -3.3409734 2.5961354 45
-18.588911 -3.4184096 3.1052566 20
-18.239853 -3.3542199 3.4941907 9
-11.972981 -2.1629112 -0.56738615 40
-11.986701 -2.1653893 -0.28280035 9
-4.6254849 -0.83559078 -1.835427 31
-12.047007 -2.1762836 0 5
-4.7715807 -0.86198288 -1.7648239 28
-13.529309 -2.4440606 0.31919488 27
-4.9429908 -0.89294791 -1.6972601 22
-13.581177 -2.4534304 0.64359671 22
-5.1159711 -0.92419672 -1.6222259 22
-13.986901 -2.5267243 0.99389029 13
-5.3011065 -0.9576413 -1.5446718 16
-14.55616 -2.6295605 1.3800027 11
-18.242403 -3.2954779 2.1678369 13
-18.458881 -3.3345845 2.6362171 18
-18.275444 -3.3014469 3.4990046 11
-11.966803 -2.1294577 -0.56682718 30
-4.6258225 -0.82315171 -1.8346996 33
-12.052663 -2.1447363 0 5
-4.7719712 -0.84915835 -1.76414 33
-13.551411 -2.4114339 0.31956625 32
-4.9397154 -0.879008 -1.6953396 29
-13.595421 -2.4192655 0.64396936 22
-5.114614 -0.91013068 -1.6210345 21
-13.98561 -2.4886987 0.99333221 13
-14.568875 -2.5924888 1.38056 11
-18.139492 -3.2278697 2.1545956 13
