# .PCD v0.7 - Point Cloud Data file format
VERSION 0.7
FIELDS x y z intensity
SIZE 4 4 4 4
TYPE F F F F
COUNT 1 1 1 1
WIDTH 1379
HEIGHT 1
VIEWPOINT 0 0 0 1 0 0 0
POINTS 1379
DATA ascii
10.011056 2.22857 -1.1993722 39
11.841462 2.6360383 -1.1317955 23
15.71209 3.4976823 -1.1255906 9
22.459232 4.9996696 -1.0730027 22
5.0240331 1.1184044 -1.0940313 1
6.4882298 1.4443505 -1.2523689 24
7.4255991 1.6285458 -1.2489766 20
8.4191933 1.8464559 -1.2113627 57
10.318765 2.2630606 -1.2353789 23
11.857468 2.6005213 -1.1325386 21
15.582689 3.4175186 -1.1155455 15
22.299206 4.8905516 -1.0646178 14
7.4819155 1.62038 -1.2577311 16
8.6078863 1.8642349 -1.2378056 22
10.17322 2.2032437 -1.2172594 28
11.963492 2.5909681 -1.1420135 23
16.114162 3.4898908 -1.1529349 12
22.259211 4.8207417 -1.0621022 14
27.356253 5.924623 -0.64985585 8
5.4359779 1.1772854 -1.3178768 7
6.6251416 1.434826 -1.2771792 19
7.4828291 1.5973544 -1.2570826 17
8.5165339 1.8180188 -1.2238884 34
8.9325018 1.9068152 -1.0681218 5
11.482309 2.4511209 -1.0953819 22
16.374193 3.4953883 -1.1707926 13
22.277321 4.7555246 -1.0622885 22
27.377619 5.8442822 -0.64994872 8
6.7735271 1.4459404 -1.304952 12
7.4936051 1.5750507 -1.2580553 13
8.4330482 1.7725085 -1.2110845 49
8.9501133 1.8811884 -1.0695157 5
11.445133 2.4056065 -1.0911088 17
16.459291 3.459512 -1.1760942 13
22.106419 4.6464591 -1.0534377 7
5.0024934 1.0514539 -1.0865467 1
7.4783783 1.5514194 -1.2548128 6
8.6063728 1.7854264 -1.2353005 27
8.9063807 1.8476642 -1.0637081 7
15.132072 3.1392088 -1.0806673 2
22.566469 4.6815042 -1.074773 15
25.983608 5.3904033 -0.61610734 8
6.8702679 1.4252645 -1.3219861 5
7.4426088 1.5196283 -1.2480038 16
8.5886536 1.7536272 -1.2319604 25
9.0055647 1.8387519 -1.0748587 5
11.786582 2.4065785 -1.1223205 18
15.132085 3.0896618 -1.0799696 8
23.76532 4.8523917 -1.1311389 8
26.881985 5.4887509 -0.6369971 8
5.0482211 1.0307434 -1.3488172 7
5.5372787 1.1305989 -1.3390883 7
6.8400493 1.3965979 -1.3153206 7
7.4567595 1.499482 -1.249625 28
8.4248953 1.6941646 -1.2077442 100
8.944767 1.7987059 -1.0669605 7
11.789768 2.3708079 -1.121949 13
15.682992 3.1536977 -1.1186148 6
24.243807 4.8751945 -1.1532193 8
26.890312 5.4073811 -0.63681144 8
5.5539651 1.1168485 -1.3423163 7
6.8114066 1.3697078 -1.3090254 7
7.3970323 1.4659967 -1.2389251 17
8.5655842 1.6975888 -1.2272285 37
8.9711876 1.7779741 -1.0695157 7
11.979956 2.3742733 -1.1394126 76
16.799433 3.3294318 -1.1975791 10
22.1036 4.3806496 -1.0508291 14
6.7670059 1.3411337 -1.2997679 8
7.4262781 1.4502498 -1.2431402 17
8.7141342 1.7017504 -1.2478261 21
12.135077 2.3698132 -1.1535321 23
16.845871 3.2897666 -1.2002299 13
22.119669 4.3196664 -1.0510154 14
26.213629 5.1191607 -0.62009966 8
6.7495065 1.3180856 -1.2956945 9
7.4579325 1.4321207 -1.2476796 45
8.7272177 1.6758571 -1.2489394 22
12.167886 2.3365564 -1.1559473 23
16.89727 3.2447236 -1.2031597 13
23.133743 4.4422917 -1.0985304 31
6.6049924 1.2683337 -1.267181 14
7.6710782 1.4522386 -1.2826976 22
8.7140617 1.6496894 -1.2464343 21
9.9326868 1.8803917 -1.1821818 42
12.181787 2.3061767 -1.1566905 13
19.943703 3.7756119 -0.94657534 11
7.5958056 1.4146581 -1.2694037 36
8.7072344 1.6216528 -1.2447643 22
9.9714212 1.8570975 -1.186131 39
12.167041 2.2660141 -1.1546469 36
15.936387 2.9680247 -1.1335427 12
21.746035 4.050025 -1.0315435 7
70.950546 13.213971 -1.6755874 55
6.1675677 1.1486601 -1.182011 51
8.6866837 1.5911695 -1.2411457 24
10.049184 1.8407432 -1.1947261 42
12.402887 2.2718792 -1.1763836 49
16.055025 2.9408536 -1.1413555 31
22.553837 4.1312633 -1.0692761 15
31.489458 5.7680316 -0.74325615 13
6.6059313 1.2100309 -1.2653295 27
8.5412788 1.5383624 -1.2197132 33
9.9744444 1.7964885 -1.1852018 57
12.437009 2.2400188 -1.1789845 100
16.72146 3.0116878 -1.1880924 23
22.577789 4.0664659 -1.0698351 22
31.47888 5.6696339 -0.74260622 13
4.8664284 0.87648821 -1.4178786 11
5.4815865 0.98728377 -1.3197213 7
6.8280668 1.2297972 -1.3071738 17
7.7341738 1.3707054 -1.2904794 15
8.4636354 1.4999858 -1.2080226 33
9.7994728 1.7367324 -1.16383 47
12.470668 2.2101407 -1.1815854 35
16.144381 2.8612223 -1.1465174 78
21.271049 3.7698073 -1.0074133 6
4.8556061 0.86054516 -1.4140197 10
5.4824057 0.97163099 -1.3192602 9
6.8043818 1.2059211 -1.3019897 17
7.6777 1.3385954 -1.2804279 17
8.436574 1.4709039 -1.2035692 43
9.9353991 1.7322217 -1.1793942 31
16.158205 2.8171587 -1.1469359 28
21.627886 3.7707891 -1.0238106 6
4.8560967 0.84665304 -1.4134685 11
5.0872436 0.88695323 -1.3518562 7
5.4831805 0.95598418 -1.3187991 7
6.8135304 1.1879287 -1.3031005 15
6.9580197 1.1918566 -1.1598103 18
8.5306978 1.4612446 -1.2163731 63
9.7270794 1.6661757 -1.1540735 35
11.238797 1.9251217 -1.0637985 7
15.210779 2.6054924 -1.0791327 5
22.562511 3.864789 -1.0675058 22
4.8547974 0.83159041 -1.4123658 11
5.1051092 0.8744669 -1.3559082 8
5.4668112 0.93642372 -1.3141879 7
6.8228374 1.1687009 -1.3042114 15
7.0744047 1.1901987 -1.1786163 16
8.7576475 1.4733876 -1.2481045 30
9.7280617 1.6366503 -1.1536088 25
10.144757 1.7067552 -0.95975959 2
13.408363 2.2558246 -0.95078075 2
22.400507 3.7686639 -1.0593072 29
4.8534517 0.81654531 -1.4112633 11
5.0924172 0.85674888 -1.3518562 7
5.4542122 0.91761732 -1.3104991 7
6.8127074 1.1461707 -1.3016193 14
7.76158 1.280746 -1.2924249 16
8.4691172 1.3974974 -1.2063525 57
9.8213549 1.6206315 -1.1640624 21
11.95374 1.9724985 -1.1303091 10
15.248066 2.5160985 -1.0806673 11
21.954924 3.6228037 -1.0376925 7
4.8389215 0.79847521 -1.4063019 11
5.1199007 0.84483987 -1.3584408 8
5.4551482 0.90015942 -1.3100379 7
6.8182149 1.1250803 -1.3019897 14
7.8196721 1.2679162 -1.3015037 13
10.282721 1.6672857 -1.2181886 36
21.968897 3.562134 -1.0378789 7
4.8335409 0.78373164 -1.4040968 11
5.1375179 0.83301985 -1.3624928 8
5.4576397 0.88492584 -1.3100379 7
6.0577831 0.98223567 -1.304438 8
6.8252091 1.1066695 -1.3027302 14
7.7569175 1.2355176 -1.2904794 17
9.7910175 1.5595078 -1.1594163 20
15.267791 2.4318452 -1.0810858 2
24.269367 3.8656113 -1.1460456 8
4.8224206 0.76811248 -1.4002379 12
5.1493788 0.82019019 -1.3650253 8
5.4658556 0.8705985 -1.3114212 7
6.8127456 1.0851303 -1.2997679 14
6.8634143 1.0735581 -1.1413286 5
8.7192497 1.3638432 -1.2403108 21
10.588224 1.6561836 -1.2532661 31
15.276493 2.3895109 -1.0812254 2
20.914688 3.2714231 -0.98719609 6
4.7960548 0.75018692 -1.3919687 14
5.1554713 0.80640596 -1.3660382 8
5.4682655 0.85533243 -1.3114212 7
6.266118 0.98013049 -1.3480995 10
6.8118658 1.065495 -1.2990272 14
8.7646027 1.3427399 -1.2461561 36
10.481453 1.6057619 -1.2400249 70
21.560745 3.303113 -1.0171958 6
72.917389 11.170966 -1.7126782 57
5.1656299 0.79137611 -1.3680644 8
5.4690022 0.8378529 -1.3109602 7
6.0757928 0.93081343 -1.3065172 25
6.809351 1.0431948 -1.2979163 14
7.790823 1.1713006 -1.2943703 25
8.6841011 1.3055995 -1.2341871 27
10.483932 1.5761925 -1.2397927 47
12.870831 1.9350477 -1.2142835 17
23.314362 3.5051661 -1.0994622 7
5.165906 0.7766611 -1.3675578 8
5.4751692 0.82315689 -1.3118823 7
6.8238988 1.0259298 -1.3001381 14
7.8176942 1.151629 -1.2982612 24
10.466945 1.5418916 -1.2372373 42
12.906068 1.9012002 -1.2170702 23
21.488493 3.165482 -1.0129101 6
5.4718122 0.80605572 -1.3104991 7
6.2281446 0.91747153 -1.3381197 18
6.8502469 1.0091137 -1.3045818 14
7.631413 1.1024245 -1.2668098 61
10.506598 1.5177703 -1.2414187 31
16.272934 2.3507681 -1.1497262 31
25.451857 3.6767442 -1.1992439 9
5.4798198 0.79160804 -1.3118823 7
6.2771511 0.90678954 -1.3480995 13
6.8433118 0.98857641 -1.3027302 14
7.540853 1.0665125 -1.2512462 31
8.7755661 1.2411394 -1.2455994 15
10.568094 1.4946591 -1.2481555 36
12.824132 1.8137332 -1.2083384 11
16.275887 2.3019192 -1.1494472 12
5.1705713 0.73128045 -1.3670512 14
5.4744363 0.77425647 -1.3100379 8
6.2488208 0.88377863 -1.3414463 15
6.7742105 0.95808518 -1.289029 11
7.5985379 1.0530335 -1.260325 41
8.708374 1.2068386 -1.2355789 16
10.678481 1.4798633 -1.2606997 42
12.49185 1.7311667 -1.1765693 11
16.151819 2.2383788 -1.1402394 9
25.144112 3.4845636 -1.1837782 27
5.1783423 0.71763384 -1.3685708 14
5.2973018 0.73411965 -1.2671539 15
6.2725806 0.86927736 -1.3460205 12
6.6678381 0.92405361 -1.268292 39
7.5196695 1.0180379 -1.2467068 21
8.7847395 1.1893073 -1.2458777 13
10.807094 1.4631003 -1.2753347 28
12.528801 1.6961908 -1.1795419 11
13.946406 1.8881109 -0.98412436 7
24.747101 3.3503449 -1.1645858 8
5.1824889 0.70162261 -1.3690773 15
5.2417264 0.70964235 -1.2533203 8
6.2558947 0.84694386 -1.3418622 11
6.6259122 0.89703804 -1.2597749 21
7.6594329 1.0151877 -1.2694037 66
8.7958794 1.1658133 -1.246991 15
10.781598 1.4290023 -1.2718502 34
12.71313 1.6850091 -1.1964483 27
15.804852 2.0947886 -1.1148479 3
24.718731 3.2762418 -1.1628157 17
5.1863461 0.68740273 -1.3695838 15
5.2436872 0.69500279 -1.2533203 7
6.2446594 0.82767254 -1.3389515 12
6.8232288 0.9043566 -1.2968054 12
7.7309136 1.0013276 -1.2807522 66
8.8012648 1.1399623 -1.2472695 15
10.825191 1.4021064 -1.2764963 57
24.516346 3.1754198 -1.1528467 8
5.2399364 0.67868996 -1.2519369 8
6.2121663 0.80461562 -1.3314666 11
6.8258824 0.88410568 -1.2968054 15
7.6062484 0.9649415 -1.2596766 91
8.7845707 1.1144255 -1.244486 15
10.834736 1.3745129 -1.2771931 28
24.149988 3.0637083 -1.1352382 25
26.347673 3.3425105 -0.61661804 8
5.2687244 0.66839927 -1.2583926 10
6.7735801 0.85930783 -1.2864369 27
7.6717525 0.95012897 -1.2700523 70
8.7839079 1.0878668 -1.2439293 16
11.020136 1.3648186 -1.2985649 21
17.325008 2.1456625 -1.2207383 14
24.129234 2.9883502 -1.1338408 16
4.8099341 0.59569931 -1.3897636 6
5.1843548 0.64207041 -1.3675578 8
5.2957921 0.65587169 -1.2643871 19
5.261364 0.65160781 -1.1268815 4
6.7234359 0.83268213 -1.2764387 24
7.8626289 0.95009196 -1.3011793 33
8.8067579 1.0641772 -1.2467127 16
11.03597 1.3335471 -1.2999587 21
24.629873 2.9761858 -1.1569461 8
24.848501 3.002604 -0.58110553 7
5.1958408 0.62784684 -1.3700904 8
5.2861223 0.6387561 -1.2616204 15
5.2613316 0.63576049 -1.1264657 4
6.817584 0.82381248 -1.2938429 13
7.7358961 0.9128685 -1.2797794 45
8.7664242 1.0344752 -1.2405891 15
11.03176 1.3017944 -1.2990296 31
17.4203 2.0556691 -1.2265979 28
22.713551 2.6802952 -1.0665742 7
4.8190131 0.56866395 -1.3914175 13
5.1764379 0.61084157 -1.3645189 8
5.276289 0.62262446 -1.2588537 15
6.8432808 0.80753613 -1.2982867 14
7.3720822 0.84646082 -1.2191464 20
8.791276 1.0094123 -1.243651 15
11.118683 1.2766446 -1.3087862 26
17.642721 2.0257332 -1.2418047 14
22.543228 2.5884085 -1.0581893 7
4.8245955 0.55395901 -1.39252 12
5.2511516 0.60293603 -1.252398 10
6.1298809 0.70383155 -1.311507 10
6.8594522 0.78760076 -1.3008788 15
7.3312688 0.8210398 -1.212013 25
8.7566643 0.98067194 -1.2383624 15
17.662188 1.9780148 -1.2427813 25
24.005678 2.688432 -1.1264806 8
4.8108392 0.53877312 -1.3881098 12
5.2373428 0.5865379 -1.2487091 9
5.3133388 0.59504879 -1.1364454 10
6.9124084 0.774131 -1.3105067 17
6.8764133 0.75066364 -1.1364648 20
8.7455864 0.95471191 -1.236414 15
19.639088 2.1439009 -1.3814572 13
5.3202143 0.58078116 -1.2680761 17
5.2644167 0.57468998 -1.125634 6
6.9614344 0.75994492 -1.3193939 14
8.7208071 0.92582911 -1.232517 16
19.655283 2.0866685 -1.3821548 13
23.605553 2.506042 -1.1070087 8
5.393518 0.57259339 -1.2851375 14
5.250536 0.55741388 -1.1223074 5
6.8444376 0.72662771 -1.2968054 24
6.5353541 0.6730597 -1.0793985 5
8.7945976 0.90573347 -1.2425375 15
11.29686 1.1634351 -1.3280672 26
13.400621 1.3800963 -1.256828 33
19.389845 1.9969114 -1.3630415 17
25.260794 2.6015456 -1.1842439 27
5.677928 0.58475554 -1.3524607 11
6.166882 0.63511163 -1.3177444 10
6.7254715 0.69263935 -1.2738465 42
7.9607635 0.79879981 -1.3144733 8
8.861969 0.88922864 -1.2517229 33
11.163485 1.1201676 -1.3120383 28
13.36456 1.3410281 -1.2531123 24
18.26148 1.8323954 -1.2833796 7
24.382925 2.4466341 -1.1427847 8
5.6407118 0.56600094 -1.3432384 15
6.1704698 0.61915797 -1.3181602 11
6.6822829 0.67051435 -1.2653295 45
7.9120278 0.77020609 -1.306043 17
13.346679 1.2992489 -1.2510687 23
19.196165 1.8686744 -1.3486717 17
24.511374 2.3860898 -1.1484679 8
5.6501145 0.55001736 -1.3450829 15
6.1703334 0.60065866 -1.3177444 11
6.9092031 0.67258489 -1.3079145 19
9.4113007 0.88797593 -1.3285465 27
11.007767 1.0386058 -1.2929897 31
24.544199 2.3157966 -1.1496791 8
5.5606585 0.52465975 -1.3234103 16
6.148716 0.58014423 -1.3127545 11
6.6646204 0.6288209 -1.2612561 55
7.996911 0.73199832 -1.3193369 20
9.4236059 0.86259103 -1.3299383 31
11.398349 1.0433494 -1.3385206 31
18.765535 1.7177057 -1.3176998 44
22.191011 2.0312572 -1.0391831 7
5.7074533 0.52243251 -1.3579942 11
6.1366749 0.56172138 -1.3098438 11
6.543045 0.5989185 -1.237927 48
7.9931498 0.70774317 -1.318364 24
9.4833355 0.83968973 -1.3380103 22
11.025438 0.97623324 -1.2943834 91
12.732677 1.1273986 -1.1925467 5
18.446611 1.6333314 -1.2949592 62
24.459621 2.1657457 -1.1451138 17
5.501555 0.48712814 -1.3086544 24
6.1363668 0.54333669 -1.309428 11
6.644639 0.588341 -1.2568125 63
8.1879177 0.70051587 -1.3501397 22
9.5272245 0.81510013 -1.3438555 25
11.103497 0.94995779 -1.3032109 100
18.900633 1.6170404 -1.3264891 20
23.856827 2.0410669 -1.1166048 8
6.1028662 0.52212965 -1.3019431 11
6.8911381 0.58957016 -1.3031005 15
6.3331633 0.52401996 -1.0440563 5
9.4110365 0.77868998 -1.3271548 100
11.179355 0.9250046 -1.3118061 31
12.60004 1.0425552 -1.1795419 5
17.914885 1.4823172 -1.2570117 26
24.356211 2.0152867 -1.1397102 17
6.1315956 0.5073418 -1.3077646 11
6.2757597 0.51927024 -1.1864548 15
9.2711582 0.73942369 -1.3071139 30
11.376107 0.90730453 -1.3345716 26
18.416409 1.4688056 -1.2918899 34
23.943865 1.9096494 -1.1201452 8
5.6491532 0.45054975 -1.3427773 9
6.1077228 0.48712304 -1.302359 11
6.2420063 0.49783289 -1.1797892 10
9.1865473 0.70364052 -1.2948667 33
11.430399 0.87550759 -1.3406115 26
18.410984 1.4101831 -1.2911923 31
23.925844 1.832592 -1.1190271 8
6.1306791 0.46957731 -1.306933 12
6.2748947 0.48062345 -1.1857141 12
7.3078947 0.53922415 -1.203907 25
9.0837917 0.67026138 -1.2801143 22
11.389215 0.84037054 -1.3355007 21
12.042823 0.88859797 -1.1265935 5
18.008947 1.3288175 -1.2627317 41
24.04244 1.774008 -1.1242446 8
5.4027557 0.39865053 -1.4182081 9
6.3879371 0.47134364 -1.2068214 14
7.3014073 0.51953113 -1.20261 7
9.085515 0.64647919 -1.2801143 22
11.448839 0.81464136 -1.3422376 21
12.966766 0.92264932 -1.2127972 11
18.372572 1.3072991 -1.2879835 31
26.838902 1.9097202 -1.2547712 30
4.8037758 0.34181234 -1.3809432 13
5.5984459 0.398357 -1.3298659 9
6.2072816 0.4416787 -1.3227344 18
6.3126922 0.44917914 -1.1923796 13
8.9373274 0.60771888 -1.25896 18
11.510798 0.78270936 -1.3492066 18
18.374601 1.249433 -1.2878441 31
26.113258 1.775645 -1.220579 9
4.8163347 0.32750034 -1.3842509 12
5.7084012 0.38815895 -1.3556886 7
6.0271225 0.40983129 -1.2840627 60
6.5709481 0.44681025 -1.2408894 30
11.540559 0.75438744 -1.3524588 23
13.802477 0.90224528 -1.2904549 24
17.896013 1.1698331 -1.2540818 97
5.7171659 0.37372178 -1.3575331 7
6.1960578 0.40502614 -1.3198236 20
6.5544448 0.4284533 -1.2375567 74
7.1954374 0.44765475 -1.1844525 2
8.9742832 0.55832332 -1.2636919 6
10.014264 0.62302434 -1.1733544 5
12.950614 0.80570555 -1.2105678 5
17.053305 1.0609492 -1.1947888 16
5.7571588 0.35817415 -1.3667555 7
6.0625758 0.37717524 -1.2911317 45
6.6675711 0.41481423 -1.258664 30
8.8335524 0.52326316 -1.243651 15
10.103321 0.59847903 -1.1835757 5
12.778016 0.75691688 -1.1942189 11
27.497866 1.62886 -1.2845848 31
5.7212849 0.3389053 -1.3579942 7
6.0285163 0.35710439 -1.2836469 18
6.8492751 0.40572277 -1.292732 14
8.7737656 0.49360412 -1.2350222 9
11.58263 0.65162826 -1.3566402 10
14.114293 0.79405737 -1.3188798 12
16.812298 0.94584465 -1.1774893 3
27.293133 1.5354871 -1.2748022 30
5.7397528 0.32291329 -1.3621444 7
6.051034 0.3404257 -1.2882209 23
6.7405586 0.37921771 -1.2719949 17
8.1705627 0.43821079 -1.3443035 42
8.7552509 0.46956927 -1.2322387 6
11.578345 0.62097996 -1.3559433 10
14.164046 0.75965858 -1.3233386 12
16.746979 0.89818865 -1.1727458 9
27.069635 1.4518224 -1.2641811 20
5.6822782 0.30475694 -1.3483106 9
6.1554399 0.33013394 -1.3102597 23
6.7690048 0.36304119 -1.2771792 17
9.708024 0.49178836 -1.3661233 12
10.683405 0.54119915 -1.2509431 10
14.124474 0.71551657 -1.3194371 12
16.7416 0.84809476 -1.1721878 9
24.851093 1.2589048 -1.1603932 17
5.6540031 0.28642008 -1.3413939 9
6.1192703 0.30998957 -1.302359 30
6.7680888 0.34285736 -1.276809 17
8.283412 0.39498514 -1.3624609 28
9.6817436 0.46166301 -1.3622264 10
16.544756 0.78891802 -1.1582365 3
26.63476 1.2700485 -1.2434982 29
5.6956501 0.27159065 -1.3510774 9
6.0634952 0.2891309 -1.2903001 35
6.7945981 0.32399273 -1.2816229 16
9.66922 0.43231255 -1.360278 12
11.541741 0.51603329 -1.351065 15
14.375152 0.64271563 -1.3424743 78
16.515133 0.7383945 -1.1560043 9
26.534628 1.186368 -1.2386534 29
4.8187971 0.21544927 -1.3831483 18
5.7275376 0.25607923 -1.3584553 9
6.1249108 0.27384585 -1.3031906 22
6.8681774 0.30707744 -1.2953241 14
9.6724396 0.40370587 -1.3605562 10
14.185992 0.59209138 -1.3246391 12
16.521238 0.68955928 -1.1562833 9
26.348402 1.099723 -1.2298026 29
4.8347821 0.20179294 -1.3875586 11
5.7477169 0.23989676 -1.3630664 7
6.2175627 0.25950706 -1.3227344 16
6.9181514 0.28874806 -1.3045818 14
8.0636473 0.3154147 -1.3258216 17
9.6655483 0.37807405 -1.3594429 12
11.482909 0.44916129 -1.3438637 13
13.690036 0.53549445 -1.2781931 12
18.661434 0.72995389 -0.87092382 4
4.8276095 0.18883501 -1.3853533 11
5.7561035 0.22515364 -1.364911 7
6.1537118 0.24070635 -1.3090122 21
6.922811 0.27079016 -1.3053223 14
8.0823479 0.29071662 -1.3287398 22
9.708252 0.34919927 -1.3652883 12
11.5061 0.41386667 -1.346419 18
13.39115 0.48167065 -1.2501397 8
16.698399 0.60063016 -1.1684209 3
25.326082 0.9109621 -1.1818216 9
4.8281789 0.17366633 -1.3853533 11
5.7470584 0.2067178 -1.3626053 7
6.2345939 0.22425415 -1.3260609 13
6.9177351 0.24882627 -1.3042114 12
8.1482201 0.27030212 -1.3394397 24
9.7270031 0.32267535 -1.3677933 10
11.445664 0.37968874 -1.3392177 26
15.223481 0.50501084 -1.4210609 16
17.106794 0.56748629 -1.1968815 13
25.991442 0.86221802 -1.2127531 19
5.7281628 0.1900212 -1.3579942 7
6.2527933 0.20742485 -1.3298033 13
6.9282246 0.22983104 -1.3060629 19
8.1864672 0.24726211 -1.3456004 23
9.6843662 0.29250431 -1.3616697 21
13.168783 0.39774683 -1.2291461 11
17.591003 0.53131455 -1.2306436 14
25.925991 0.78306246 -1.2095854 28
5.3724275 0.16226754 -1.407065 7
5.7520442 0.17373338 -1.3635277 7
6.2572913 0.18899375 -1.330635 10
6.9956698 0.21129556 -1.3186533 19
8.1851912 0.22291513 -1.3452761 20
9.7525053 0.26559928 -1.3711334 16
11.481473 0.31268594 -1.3431667 36
11.824249 0.3220211 -1.1035563 2
17.983402 0.48975921 -1.2579882 11
25.600677 0.69720769 -1.194306 9
5.3786879 0.14648294 -1.4085846 7
5.7447524 0.15645234 -1.3616831 7
6.1796021 0.16829501 -1.314002 16
7.0257363 0.1913386 -1.3242079 15
8.1404037 0.19894542 -1.3378186 17
9.8225079 0.24005477 -1.3808757 13
11.347262 0.27731866 -1.3273703 39
13.057383 0.31911272 -1.2185565 8
17.027325 0.41613516 -1.191022 6
24.895504 0.60842758 -1.1613249 8
4.8221712 0.11785028 -1.3831483 11
5.3713393 0.13127153 -1.4065585 7
5.7412763 0.14031252 -1.3607609 7
6.1644025 0.15065341 -1.3106754 18
7.0321383 0.17186022 -1.3253188 21
8.0916014 0.1751499 -1.3297126 17
9.8350191 0.21288775 -1.3825456 13
11.371825 0.24615327 -1.3301579 28
13.603725 0.29446474 -1.2694613 3
16.65542 0.36052138 -1.1649331 3
24.371799 0.52754927 -1.1368221 16
5.3716846 0.11627489 -1.4065585 7
5.7027326 0.12344071 -1.3515385 7
6.1921806 0.13403526 -1.316497 18
6.9068327 0.14950454 -1.3016193 36
8.0348349 0.15147197 -1.3203095 17
9.8296356 0.18530738 -1.3817106 13
11.420135 0.21529134 -1.3357332 23
11.985813 0.22595544 -1.1184191 2
23.97768 0.452025 -1.1183751 24
5.3642502 0.10112635 -1.4045326 7
5.7380786 0.10817373 -1.3598386 7
6.290328 0.11858469 -1.3372881 10
6.8246903 0.12865843 -1.2860665 39
7.9997749 0.12427649 -1.3144733 16
9.8539591 0.15308124 -1.3850508 12
10.691842 0.16609775 -1.2504785 10
14.897502 0.23143268 -1.390035 9
16.611429 0.25805852 -1.1617243 12
24.536373 0.38117251 -1.1443686 25
5.0898471 0.079070769 -1.3326091 8
5.7228389 0.088904291 -1.3561498 7
6.304379 0.097938515 -1.3401989 10
6.8014975 0.10566125 -1.2816229 39
7.9744363 0.10160711 -1.3102582 17
9.8345442 0.12530786 -1.3822674 13
10.632675 0.13547733 -1.2435094 13
13.235445 0.16864079 -1.2349055 2
16.665949 0.2123509 -1.1654911 16
24.451441 0.31155056 -1.1403624 8
5.7444701 0.073193759 -1.361222 9
6.3222332 0.080555387 -1.3439413 11
7.0100832 0.089319706 -1.3208752 15
7.9451003 0.077658147 -1.3053944 17
9.8210096 0.095993929 -1.3803189 13
10.587344 0.10348435 -1.2381666 10
14.777122 0.14443667 -1.3787023 13
19.254063 0.18819584 -1.3464394 16
27.155191 0.26542419 -1.2664171 20
5.7835827 0.056530725 -1.3704444 7
6.1679044 0.060287222 -1.3110912 22
6.81182 0.06658107 -1.2834743 48
7.9235787 0.055316973 -1.3018279 15
9.7836103 0.06830243 -1.3750303 13
10.557795 0.073707253 -1.234682 13
14.747597 0.10295757 -1.3759154 13
19.575722 0.13666421 -1.368901 17
24.412874 0.17043388 -1.138499 8
6.2873802 0.043894161 -1.3364565 15
6.9161434 0.048283752 -1.3031005 33
7.9158082 0.033162016 -1.3005309 17
9.7144451 0.04069712 -1.3652883 15
10.514257 0.04404781 -1.2295713 10
14.700036 0.061583459 -1.3714566 13
19.542109 0.081868552 -1.3665292 12
27.387997 0.11473765 -1.2772245 20
6.322691 0.026487907 -1.3439413 12
6.7511582 0.028282903 -1.2719949 100
7.9040318 0.0082752043 -1.2985854 15
9.7481947 0.010205968 -1.3700202 12
10.492493 0.010985219 -1.227016 10
14.66033 0.015348777 -1.367741 13
19.504364 0.020420285 -1.3638785 12
27.342272 0.028626261 -1.2750818 31
6.1916714 0.0064824317 -1.3160812 26
7.1580553 0.0074941968 -1.348648 17
7.9119182 -0.013808915 -1.2998824 15
9.7521448 -0.017020719 -1.3705769 13
10.48851 -0.01830592 -1.2265514 13
14.572695 -0.025434176 -1.3595665 13
17.036373 -0.029734109 -1.1913011 10
27.234364 -0.047532976 -1.2700506 30
4.8101459 -0.0083952965 -1.3792894 13
6.2836113 -0.010966981 -1.3356248 16
7.1875291 -0.012544616 -1.3542025 12
7.8980341 -0.035840388 -1.2976128 17
9.8015728 -0.044478431 -1.3775355 15
10.472527 -0.047523145 -1.2246931 10
14.528759 -0.065929867 -1.3554792 13
16.960409 -0.076964423 -1.1859995 10
27.144222 -0.12317742 -1.2658582 30
4.8139491 -0.021845158 -1.380392 13
6.3089876 -0.028629472 -1.3410305 13
7.1835356 -0.032598075 -1.3534619 12
7.9472198 -0.061031468 -1.3057188 26
9.7597952 -0.074951321 -1.3716903 21
10.398828 -0.079858832 -1.2160978 13
14.550384 -0.11174112 -1.3575228 13
19.633478 -0.15077725 -1.372947 30
26.947918 -0.20694922 -1.2567278 30
4.8292365 -0.037086602 -1.3848021 13
7.1637444 -0.055014689 -1.3497589 12
7.909523 -0.082831353 -1.2995582 27
9.8169794 -0.10280692 -1.3797623 24
10.432333 -0.10925112 -1.220047 13
10.430133 -0.10922807 -0.97313601 9
26.847351 -0.28115505 -1.2520695 30
4.8348813 -0.050632603 -1.386456 14
7.1419439 -0.074792981 -1.3456855 12
7.769134 -0.10441595 -1.2765371 12
9.8027697 -0.13174769 -1.3778138 22
14.718748 -0.19781768 -1.3733145 13
18.930063 -0.25441709 -1.3238384 8
23.198694 -0.31178683 -1.0819468 15
4.8597007 -0.065313622 -1.3936225 13
5.0880671 -0.068382829 -1.3321027 14
6.226326 -0.083680853 -1.323566 16
7.7253771 -0.12675464 -1.2694037 10
9.7825317 -0.16050754 -1.3750303 21
10.270619 -0.16851588 -1.2012306 31
14.736017 -0.24178219 -1.3749865 13
19.601492 -0.32161278 -1.3708541 21
22.598396 -0.3707847 -1.0539967 21
4.8921638 -0.080268502 -1.4029942 15
5.3373976 -0.087573715 -1.3974414 11
7.7427521 -0.14866844 -1.2723219 17
9.7345219 -0.18691239 -1.36835 24
10.385303 -0.19940801 -1.214704 34
20.284721 -0.38948655 -1.4187071 18
22.517376 -0.43235573 -1.0502701 14
4.9342084 -0.094741642 -1.4151223 14
5.3371325 -0.10247818 -1.3974414 11
5.9189959 -0.11365053 -1.4027226 8
6.9661293 -0.13375652 -1.3127284 22
7.7521424 -0.17185965 -1.2739431 13
9.7279844 -0.21566272 -1.367515 18
10.356861 -0.22960448 -1.2114519 31
14.610947 -0.32391462 -1.3634679 26
20.175766 -0.44728285 -1.4111735 18
22.504009 -0.49889839 -1.049711 21
4.94736 -0.10967956 -1.4189812 14
5.3348703 -0.1182704 -1.396935 11
5.9672737 -0.13229035 -1.4142506 8
6.1217003 -0.13571388 -1.3015273 21
6.2484994 -0.13852493 -1.1775674 12
7.8956213 -0.1984804 -1.2976128 38
9.7055225 -0.24397776 -1.3644532 19
10.336276 -0.25983366 -1.2091289 28
14.378998 -0.36145973 -1.341917 12
19.972906 -0.50207961 -1.3970827 22
22.388592 -0.56280518 -1.0444006 21
4.9085741 -0.1233919 -1.4079556 18
5.3461013 -0.13439047 -1.399974 11
5.9765825 -0.15023953 -1.4165562 8
6.3246613 -0.15898955 -1.3447729 20
6.173399 -0.15518712 -1.1634959 3
8.4672222 -0.23355304 -1.3916427 23
9.7583513 -0.2691665 -1.3719686 16
10.365396 -0.28591073 -1.2126133 18
14.390015 -0.39692256 -1.3430318 12
20.009512 -0.55192626 -1.3997334 18
27.549572 -0.75990522 -1.285237 31
34.547546 -0.9529317 -0.80239731 18
4.908258 -0.13538542 -1.4079556 20
5.3283505 -0.14697292 -1.3954154 11
5.9820333 -0.16500358 -1.4179395 8
6.3868313 -0.17616922 -1.3580793 21
6.1297784 -0.16907887 -1.1553491 4
8.5315428 -0.26215264 -1.4023426 19
9.7594376 -0.29988274 -1.3722469 15
12.052143 -0.37033176 -1.4100696 41
14.378744 -0.44182229 -1.3421028 12
19.78034 -0.60779965 -1.383829 21
27.427235 -0.84276927 -1.2796469 31
4.9001222 -0.15056831 -1.4057506 22
5.2795148 -0.16222608 -1.3827529 12
5.9989924 -0.1843338 -1.4220897 8
6.4879255 -0.19935748 -1.3797021 13
6.1468978 -0.18887855 -1.1586819 3
8.5188427 -0.28855306 -1.4003972 20
9.7406321 -0.32993791 -1.3697417 15
14.458884 -0.48975611 -1.3497199 39
19.782322 -0.67007333 -1.3841079 39
27.470375 -0.93048567 -1.2817897 31
4.9188395 -0.16661255 -1.4112633 16
5.2596421 -0.17815635 -1.3776878 14
6.0042191 -0.20337689 -1.423473 8
6.5341916 -0.2213283 -1.3896819 13
6.1521668 -0.20838822 -1.1597928 1
8.5043068 -0.30886623 -1.3981274 19
9.7655268 -0.35467222 -1.3733602 15
14.395953 -0.52284378 -1.3439606 15
17.475777 -0.63469929 -1.222831 3
27.525919 -0.99970847 -1.2844915 21
4.9549212 -0.17995681 -1.4217377 14
5.2495241 -0.19065642 -1.3751553 14
6.0075941 -0.21818861 -1.4243953 8
6.5805516 -0.23899776 -1.3996617 12
7.1376295 -0.25923017 -1.3456855 8
8.4855461 -0.33488131 -1.3952092 19
9.7544699 -0.38495928 -1.3719686 15
10.710618 -0.42269361 -1.2534984 2
14.346484 -0.56618267 -1.3395019 12
19.6766 -0.77653527 -1.3769928 21
4.9658575 -0.19597712 -1.4250451 14
5.2392325 -0.20676585 -1.3726228 14
6.0166016 -0.23744464 -1.4267008 8
6.5465374 -0.25835851 -1.3925927 13
7.1937327 -0.28390002 -1.3564243 7
8.4609165 -0.3575761 -1.3913184 20
9.686079 -0.40935403 -1.3625048 22
9.715066 -0.41057912 -1.1371155 7
14.350815 -0.60649556 -1.3400592 18
19.53083 -0.82541394 -1.3669479 25
26.64723 -1.1261679 -1.2437776 9
4.9710531 -0.21008714 -1.426699 14
5.2425008 -0.22155908 -1.3736359 14
6.0061932 -0.25383434 -1.4243953 8
6.5496988 -0.27680403 -1.3934243 15
7.2321854 -0.30564734 -1.3638304 7
8.3987017 -0.3799139 -1.381267 23
9.7243919 -0.43988132 -1.3680718 15
12.037578 -0.54451787 -1.4091403 13
19.717642 -0.89192438 -1.3802016 17
25.775604 -1.1659553 -1.2032501 9
4.9684877 -0.22474876 -1.4261478 14
5.2495518 -0.23746262 -1.3756618 14
5.9762516 -0.27033478 -1.4174784 8
6.6348386 -0.30012587 -1.4117205 12
7.2508812 -0.32799244 -1.3675334 7
8.3640947 -0.40175629 -1.3757547 20
9.6459732 -0.46332934 -1.3572162 21
12.208632 -0.58642268 -1.4293506 13
15.090993 -0.72487235 -1.4095423 30
19.581553 -0.94056946 -1.3708541 17
29.571732 -1.4204321 -1.3806397 11
4.9697609 -0.23871472 -1.426699 13
5.2450032 -0.25193557 -1.3746489 14
5.977417 -0.28711593 -1.4179395 8
6.6535144 -0.31959122 -1.4158788 12
7.2597528 -0.34871092 -1.369385 7
8.3568802 -0.42772824 -1.3747821 20
9.6523819 -0.4940356 -1.3583295 16
9.8756866 -0.50546497 -1.1563964 10
14.478095 -0.74102896 -1.3525066 13
21.205168 -1.0853392 -0.99017739 6
4.9632268 -0.25403169 -1.4250451 14
5.251915 -0.26880756 -1.3766749 14
5.9784298 -0.30599257 -1.4184008 8
6.6563854 -0.34069222 -1.4167104 12
7.2350669 -0.37031075 -1.3649414 7
8.312376 -0.44727218 -1.3676488 22
9.5996361 -0.51653701 -1.3510926 22
9.9060678 -0.5330255 -1.1601133 10
14.54769 -0.78278184 -1.359195 22
19.322796 -1.0397205 -1.3531361 17
29.435385 -1.5838586 -1.3746771 11
4.9491062 -0.26630139 -1.4211862 13
5.2531247 -0.28266004 -1.3771813 14
5.9562311 -0.32049277 -1.4133284 8
6.6515636 -0.35790721 -1.4158788 12
7.1300559 -0.38365391 -1.3453152 8
8.2912254 -0.47226167 -1.3644063 20
9.9578915 -0.56719369 -1.1663854 10
15.141598 -0.86245346 -1.4149301 27
19.506672 -1.1110847 -1.3662503 17
29.308592 -1.6693944 -1.3689939 11
4.9213734 -0.28031754 -1.4134685 14
5.2386889 -0.29839161 -1.3736359 14
5.9513092 -0.3389819 -1.4124062 8
6.6425939 -0.3783569 -1.4142154 12
7.148438 -0.40716937 -1.3490182 8
8.2583551 -0.49352962 -1.3592186 20
9.3097353 -0.55636144 -1.3107324 64
9.8888502 -0.5909701 -1.1584872 2
19.437773 -1.1616256 -1.3616463 17
29.002682 -1.7332366 -1.3549256 22
4.9167333 -0.29383013 -1.4123658 14
5.2455611 -0.31348127 -1.3756618 14
5.9425693 -0.35513535 -1.4105618 8
6.6395583 -0.3967883 -1.4137996 12
7.176702 -0.42888871 -1.3545729 8
8.2214899 -0.51437116 -1.3533822 23
9.2330322 -0.57765746 -1.3001552 30
12.13938 -0.75949085 -1.4223815 11
14.836438 -0.92823017 -1.3868767 19
18.516495 -1.15847 -1.297331 3
29.06353 -1.8183372 -1.3580003 11
4.9485126 -0.30959985 -1.4217377 14
5.258182 -0.3289741 -1.3792074 14
5.9299002 -0.3709996 -1.4077951 8
6.6423297 -0.4155722 -1.4146312 12
7.124475 -0.44573724 -1.344945 7
8.2730999 -0.54224759 -1.3621367 22
9.5395794 -0.62525707 -1.3435771 31
12.184646 -0.79862392 -1.4279568 11
14.583245 -0.95583647 -1.3634679 68
19.355108 -1.2686008 -1.3563448 17
29.155691 -1.910965 -1.3625654 11
4.9475722 -0.32428104 -1.4217377 14
5.2726283 -0.34558636 -1.3832594 14
5.9481931 -0.38986519 -1.4124062 8
6.6508279 -0.4359183 -1.4167104 12
7.1191983 -0.46661693 -1.3442043 7
8.267417 -0.56796503 -1.3614882 20
9.1601753 -0.62929678 -1.290413 10
12.106769 -0.83172548 -1.4191293 8
14.30601 -0.98281157 -1.3378297 15
19.402777 -1.3329555 -1.3599721 17
30.138136 -2.070466 -1.408776 12
4.9407754 -0.33942735 -1.4200838 14
5.2580051 -0.36122081 -1.3797139 12
5.956646 -0.40921688 -1.4147117 8
6.6533289 -0.45707843 -1.417542 11
7.1294622 -0.48978844 -1.3464261 8
8.2639332 -0.58946669 -1.3611641 22
9.0399656 -0.64482111 -1.2737123 24
13.729345 -0.9793148 -1.2841382 12
19.437033 -1.3864443 -1.362623 17
29.917393 -2.1340089 -1.3987141 12
4.9398699 -0.35236111 -1.4200838 14
5.2435317 -0.37402135 -1.3761684 17
5.9536133 -0.42467147 -1.4142506 8
6.6247911 -0.47254661 -1.4117205 12
7.1712856 -0.51152807 -1.3545729 8
8.2739553 -0.61486107 -1.3631094 20
9.018261 -0.67017257 -1.2709287 15
11.214446 -0.8333773 -1.3150582 21
13.416583 -0.99702436 -1.2551559 6
19.361208 -1.4387863 -1.3576006 17
29.787405 -2.2135866 -1.3929378 12
4.9426365 -0.36730134 -1.4211862 14
5.1324186 -0.38140458 -1.3472977 22
5.971735 -0.44377655 -1.4188619 8
6.6604271 -0.49495521 -1.4196212 12
7.2618566 -0.53964913 -1.3719771 7
8.2720947 -0.63940769 -1.3631094 22
9.5888805 -0.74119127 -1.3516493 28
11.172314 -0.86358577 -1.3104123 10
19.416529 -1.5008384 -1.3617859 17
29.774731 -2.301496 -1.3926582 24
4.9357743 -0.3815203 -1.4195324 14
5.2064977 -0.40244639 -1.3670512 19
5.9703918 -0.46149307 -1.4188619 8
6.6374736 -0.51305646 -1.415047 12
7.2602234 -0.56119311 -1.3719771 7
8.2546549 -0.65980375 -1.3605155 20
9.2848482 -0.74214828 -1.3090622 55
11.24922 -0.89916271 -1.3197043 52
13.37309 -1.068926 -1.251626 8
19.313093 -1.5437171 -1.3548102 21
30.168892 -2.4114332 -1.4113848 12
4.9290099 -0.39398125 -1.4178786 15
5.1996398 -0.41561303 -1.3655318 19
5.9846826 -0.47836232 -1.4225508 8
6.5951562 -0.5271582 -1.4063148 13
7.223465 -0.57737958 -1.3653116 8
8.2446747 -0.68507957 -1.3592186 22
9.19168 -0.76376963 -1.2962583 12
11.224564 -0.93268919 -1.3171489 13
13.149385 -1.0926296 -1.231004 11
19.371773 -1.60967 -1.3592746 17
24.465006 -2.0328851 -1.1448344 8
4.9277477 -0.40946424 -1.4178786 14
5.2465129 -0.43595159 -1.3781945 15
5.9909081 -0.49780604 -1.4243953 8
6.6071143 -0.54900885 -1.4092256 16
7.1726484 -0.59600109 -1.3560541 8
8.2191334 -0.70607334 -1.3553276 20
12.043272 -1.03459 -1.4135542 19
13.237549 -1.1371856 -1.2395501 8
18.512445 -1.5903311 -1.2992841 15
4.9189234 -0.42256528 -1.4156735 15
5.2741904 -0.45308486 -1.3857919 14
5.9914336 -0.51470041 -1.4248564 8
6.675724 -0.57348508 -1.4241952 12
7.1220007 -0.61182296 -1.3467964 14
8.2091389 -0.72975785 -1.3540306 20
9.7513361 -0.8668527 -1.3758655 27
10.771829 -0.95757008 -1.2646489 5
18.448027 -1.6399517 -1.2950987 11
29.839773 -2.6526301 -1.3970371 36
4.9233928 -0.43766883 -1.4173274 14
5.2805319 -0.46941701 -1.387818 14
5.9763107 -0.53126884 -1.4216286 8
6.6700954 -0.59294337 -1.4233636 12
7.1945467 -0.63956487 -1.360868 14
8.1754942 -0.75122237 -1.3488429 22
9.9913054 -0.9180721 -1.410102 24
12.074505 -1.1094912 -1.4179678 11
13.325751 -1.2244647 -1.2484677 5
19.233809 -1.7673389 -1.3506249 17
29.770098 -2.7354879 -1.3941489 24
4.9201579 -0.45209906 -1.4167761 15
5.2309484 -0.48065665 -1.3751553 14
5.9533901 -0.54703975 -1.4165562 8
6.6235008 -0.60861427 -1.4137996 11
7.2102318 -0.66252726 -1.3642007 14
9.619833 -0.91273004 -1.3580512 100
12.023698 -1.1408088 -1.4123926 13
18.866991 -1.7901006 -1.3252335 16
29.288494 -2.778893 -1.3719752 11
4.8766885 -0.46270031 -1.4046481 15
5.1312652 -0.48685458 -1.3493236 17
5.8723073 -0.55716467 -1.3976504 10
6.6041384 -0.6266008 -1.4100573 11
7.2180176 -0.68484569 -1.3660523 14
9.5147476 -0.92957598 -1.3435771 22
10.687933 -1.0441945 -1.2558213 7
18.971132 -1.8534502 -1.3329067 4
29.745897 -2.9061279 -1.3937763 12
4.9059925 -0.47930783 -1.4134685 14
5.0355296 -0.49196342 -1.324505 16
5.9036555 -0.57677799 -1.4054893 10
6.617939 -0.64656234 -1.4133838 11
7.2884526 -0.71207047 -1.3797535 8
9.5218 -0.95879483 -1.3449689 37
12.062387 -1.2146184 -1.4177355 11
13.526561 -1.362053 -1.2683465 12
17.8936 -1.8017908 -1.2575698 3
29.725216 -2.9931719 -1.3932172 36
4.9045486 -0.49386206 -1.4134685 14
4.9628205 -0.49972972 -1.3057644 14
5.8748097 -0.59156221 -1.3990338 10
6.5887413 -0.66345131 -1.4075623 16
7.2726192 -0.73231423 -1.3771614 8
8.3465977 -0.86695403 -1.3786731 45
9.6704264 -1.004459 -1.3664017 90
10.718897 -1.1133628 -1.2602352 7
17.836256 -1.8526368 -1.2539425 10
29.675922 -3.0824132 -1.391354 23
4.9144464 -0.51045942 -1.4167761 14
4.9766216 -0.51691753 -1.3098165 16
6.6858616 -0.69445479 -1.4287692 12
7.23314 -0.75130016 -1.3701257 10
8.473978 -0.90111953 -1.4000729 19
10.759601 -1.1441717 -1.2653457 2
15.348437 -1.6321468 -1.4400109 28
17.791996 -1.8919939 -1.2511522 10
29.813326 -3.1703377 -1.3981551 12
4.903625 -0.52144963 -1.4140197 14
5.0773139 -0.53991956 -1.3366611 19
5.7862654 -0.61530924 -1.3787446 13
6.668582 -0.70913446 -1.4254427 16
7.2176018 -0.76751697 -1.3675334 10
8.4691429 -0.92752194 -1.3997487 19
10.761878 -1.1786174 -1.2660427 7
13.708153 -1.5012869 -1.2865534 6
17.81373 -1.9509208 -1.2531053 10
29.968056 -3.2820358 -1.405888 24
4.8580074 -0.53203833 -1.4013404 16
5.0852084 -0.55692095 -1.3391936 22
5.7726965 -0.63221306 -1.3759779 13
6.6663213 -0.73008096 -1.4254427 16
7.2073398 -0.78933209 -1.3660523 10
8.4606361 -0.95050758 -1.3987759 24
12.008115 -1.349048 -1.4130894 11
15.461173 -1.7369808 -1.4515295 14
18.688513 -2.0995553 -1.3150491 4
4.9157286 -0.55225605 -1.41843 14
5.0240297 -0.56442314 -1.3234921 19
5.2410054 -0.58879918 -1.2496313 47
6.6117668 -0.74279696 -1.4142154 23
7.1562791 -0.80397004 -1.3567947 10
8.4853964 -0.97729158 -1.4033153 27
10.119005 -1.1654398 -1.4315346 26
10.707765 -1.2332492 -1.2604674 5
13.559095 -1.5616466 -1.2733628 9
18.541853 -2.1355274 -1.3051436 12
34.140961 -3.9321291 -1.6026565 19
4.9122572 -0.56576115 -1.4178786 13
5.149292 -0.59306127 -1.3569212 19
5.6105418 -0.64618492 -1.3381661 15
6.541646 -0.75342333 -1.3996617 27
7.1344814 -0.82170218 -1.3530916 8
8.4450464 -0.99953711 -1.3971547 34
10.158565 -1.2023454 -1.4376583 21
13.605539 -1.6103218 -1.2781931 3
18.59449 -2.200803 -1.309329 4
28.880812 -3.4182694 -1.35623 11
39.169971 -4.6360717 -0.91575879 27
4.9066377 -0.58073884 -1.4167761 13
5.2434731 -0.62060595 -1.3822464 14
5.7920837 -0.68553829 -1.3819724 13
6.6422119 -0.78615761 -1.4217002 13
7.2060323 -0.85289019 -1.3671632 10
8.4400845 -1.0243518 -1.3968304 26
10.192307 -1.2370148 -1.4429468 17
11.035271 -1.339323 -1.2999587 7
13.594771 -1.6499633 -1.2776358 6
20.073324 -2.436249 -1.4139637 13
29.041103 -3.5246458 -1.3642423 11
4.9029837 -0.59506285 -1.4162247 14
5.1052389 -0.61961001 -1.3462847 26
5.7919559 -0.70295513 -1.3824335 11
6.5213857 -0.79148418 -1.3963351 22
7.2307858 -0.87758231 -1.3723474 10
8.1102991 -1.0058789 -1.3426822 22
10.202793 -1.2654003 -1.4448953 17
11.002156 -1.3645412 -1.2964742 7
20.062918 -2.4883013 -1.4136847 18
28.18519 -3.4956651 -1.3244601 11
4.9033175 -0.60813344 -1.4167761 13
5.3013682 -0.65750158 -1.3984545 16
5.8094091 -0.72051132 -1.3870447 12
6.5231738 -0.8090359 -1.3971667 15
7.1738501 -0.88973594 -1.3619789 14
8.3283253 -1.0594968 -1.3793215 23
10.800757 -1.3740298 -1.273244 10
13.229465 -1.6830004 -1.2441947 8
20.019377 -2.5467863 -1.4111735 18
28.257305 -3.5947831 -1.3283731 11
4.8861256 -0.62159365 -1.4123658 13
5.3069534 -0.67512971 -1.4004805 15
5.8186998 -0.74023211 -1.3898114 12
6.4274483 -0.8176747 -1.3772072 25
7.1690698 -0.91202086 -1.3616086 22
8.4623289 -1.1005665 -1.4020184 28
12.108813 -1.5748093 -1.4279568 16
28.175837 -3.664403 -1.3250191 11
4.8977156 -0.63697141 -1.4162247 12
5.2724309 -0.68570495 -1.3918699 21
5.8243299 -0.75748205 -1.3916558 12
6.2932229 -0.81846386 -1.3489312 12
7.1489544 -0.92975581 -1.3582759 33
8.3887939 -1.1148338 -1.3903456 30
10.071602 -1.3384714 -1.427916 100
12.263869 -1.6298143 -1.4467732 14
13.902863 -1.8476292 -1.3084759 9
27.987255 -3.719383 -1.3166342 10
4.880672 -0.64861977 -1.4118146 13
5.3337874 -0.70883685 -1.4085846 15
5.7990417 -0.77066708 -1.3861223 12
6.2889733 -0.83577687 -1.3485154 12
7.2437444 -0.96266174 -1.3767911 24
8.547761 -1.1617796 -1.4172577 16
10.032261 -1.3635473 -1.4229059 53
13.956516 -1.8969173 -1.3140495 12
20.364578 -2.7678771 -1.4371229 41
27.645498 -3.7574725 -1.3010752 10
4.8653908 -0.6612857 -1.4079556 14
5.3201575 -0.72309589 -1.4055455 15
5.8237271 -0.79153919 -1.3925781 12
6.3310509 -0.86049271 -1.3580793 13
7.3362842 -0.99712026 -1.394936 18
8.5421143 -1.1883556 -1.4169334 13
8.570426 -1.1922941 -1.2160947 3
12.017583 -1.6718533 -1.418897 66
19.814331 -2.7565155 -1.3988963 27
27.657303 -3.8476081 -1.3021932 32
4.8747149 -0.67815697 -1.4112633 14
5.2354565 -0.72834235 -1.3837659 17
5.8250666 -0.81036729 -1.3935003 12
6.3767571 -0.88711697 -1.3684748 13
7.2338352 -1.0063514 -1.3760505 26
8.5018482 -1.2054509 -1.4107729 19
12.054467 -1.7091658 -1.4237753 44
13.931557 -1.9753125 -1.3127489 3
19.540369 -2.7705686 -1.380062 4
27.657024 -3.9214041 -1.302659 10
4.8805366 -0.69199622 -1.4134685 14
5.1875567 -0.73552769 -1.3716098 22
5.8229251 -0.82561457 -1.3935003 12
6.3259897 -0.89694256 -1.3580793 11
7.3206897 -1.0379781 -1.3930844 16
8.517766 -1.2334994 -1.4140152 15
12.124049 -1.755743 -1.4326028 27
15.587015 -2.257232 -1.4693648 14
20.529202 -2.9729342 -1.4505161 19
27.692722 -4.0103188 -1.304895 10
4.9146123 -0.71170908 -1.4239427 13
5.3098154 -0.76894033 -1.4045326 18
5.8416367 -0.84595597 -1.3985727 12
6.2671537 -0.90757722 -1.3460205 12
7.3389745 -1.0627928 -1.3971578 20
8.4689465 -1.2536062 -1.4065577 19
8.6968384 -1.2873394 -1.2355789 12
11.864982 -1.7563003 -1.4026359 49
15.475443 -2.2907348 -1.4595182 10
20.496077 -3.0339084 -1.4488419 19
4.9332719 -0.73024195 -1.4300066 13
5.3973289 -0.79893345 -1.4283382 13
5.8466506 -0.86544371 -1.4004171 12
6.2545953 -0.92582929 -1.3439413 13
7.3783722 -1.0921751 -1.4053044 22
8.5339384 -1.2860665 -1.4179062 13
10.467769 -1.5774953 -1.4877605 13
11.823022 -1.7817322 -1.3982221 27
15.451671 -2.3285704 -1.4578462 10
20.448608 -3.0816102 -1.4460517 18
36.914612 -5.5630407 -1.740916 23
4.9351459 -0.74372762 -1.4311093 14
5.3952188 -0.81306076 -1.4283382 15
5.8693819 -0.88451725 -1.4064116 12
6.3043804 -0.95007163 -1.3551685 11
7.4104705 -1.1167597 -1.41197 18
8.407196 -1.2924892 -1.3974791 27
8.9342051 -1.3735094 -1.2703722 4
15.51555 -2.3852994 -1.4645344 10
20.3743 -3.1322646 -1.4414479 18
32.460949 -4.9904184 -1.5315701 16
4.9424181 -0.75982785 -1.4338655 14
5.4061689 -0.83112311 -1.4318837 13
5.9109726 -0.90872961 -1.4170173 12
6.3344049 -0.97382647 -1.3622376 11
7.4323778 -1.1426245 -1.4167839 15
8.4384184 -1.3229299 -1.4033153 19
11.121444 -1.7435602 -1.3164521 7
20.33338 -3.1877582 -1.4392157 18
32.882187 -5.1550927 -1.5521598 17
4.934444 -0.77359557 -1.4322118 15
5.4094138 -0.84805882 -1.4334033 13
5.9313216 -0.92988074 -1.4225508 10
6.3952665 -1.0026155 -1.3759598 12
7.4289551 -1.1646717 -1.4167839 13
8.4931574 -1.3558226 -1.4130425 13
9.0024214 -1.43712 -1.2812277 6
11.226383 -1.7921466 -1.3294609 2
20.32243 -3.2442126 -1.4390761 18
32.729565 -5.2248511 -1.5456382 17
4.9474525 -0.78979665 -1.436622 15
5.4146667 -0.86438143 -1.4354292 13
5.9133277 -0.94398618 -1.4188619 12
6.4272141 -1.0260215 -1.3834445 12
7.4295549 -1.1860322 -1.4175245 16
8.4774094 -1.379115 -1.411097 13
8.9472914 -1.4555559 -1.2739906 12
12.109208 -1.9699402 -1.4346935 16
13.058873 -2.1244328 -1.2343482 11
20.275297 -3.2984092 -1.4364253 18
36.070107 -5.8679271 -1.7042084 22
4.9450874 -0.80447263 -1.436622 15
5.40062 -0.8785792 -1.4323901 13
5.2439604 -0.85309362 -1.2588537 8
6.4588985 -1.0507412 -1.3909293 12
7.4298835 -1.2087022 -1.4182651 15
8.4457788 -1.4012187 -1.4065577 20
8.8918753 -1.4752295 -1.2667537 15
11.836444 -1.9637557 -1.4031006 19
12.796748 -2.1230776 -1.2101963 8
20.231377 -3.3565385 -1.4340535 18
4.9216728 -0.8165428 -1.4305578 20
5.3539329 -0.88825804 -1.4207406 11
5.8613739 -0.97244638 -1.4077951 14
6.4632854 -1.0723079 -1.3925927 12
7.4279885 -1.2323595 -1.4186354 15
8.4440269 -1.4236529 -1.4068819 19
8.9426651 -1.5077227 -1.2745473 10
11.194645 -1.887404 -1.3276025 10
12.853983 -2.1671662 -1.2161413 2
20.171366 -3.4008687 -1.4304262 18
35.34029 -5.9583311 -1.6713203 21
4.9479551 -0.8342194 -1.438827 15
5.3668518 -0.90484488 -1.4247926 13
5.9413261 -1.0017006 -1.4276232 12
6.4951787 -1.0950794 -1.4000775 13
7.4247365 -1.2518018 -1.4186354 15
8.4028091 -1.4423567 -1.4007213 22
8.9615774 -1.5382704 -1.2778875 6
11.161587 -1.9159058 -1.3243504 10
12.857309 -2.2069795 -1.2170702 8
18.639217 -3.1994541 -1.3224431 8
34.968029 -6.0023232 -1.6545503 20
4.9852486 -0.8557266 -1.4504038 14
5.3889341 -0.92501992 -1.4313772 13
5.9498367 -1.0212998 -1.4303899 12
6.4899735 -1.1140152 -1.3996617 13
7.3318839 -1.2585306 -1.4016014 28
8.4373741 -1.474075 -1.4072062 16
8.9101496 -1.5566726 -1.2712072 4
11.733116 -2.0498669 -1.3928792 16
15.420453 -2.6940734 -1.4604472 21
20.127247 -3.516387 -1.4287521 18
34.985489 -6.1122379 -1.6562272 21
5.009202 -0.87514669 -1.4581218 13
5.4071307 -0.94466788 -1.4369487 15
5.9122725 -1.0329201 -1.4220897 14
6.4904933 -1.1339397 -1.4004933 12
7.080297 -1.2369831 -1.3542025 49
8.4060211 -1.4927998 -1.4026668 19
11.179705 -1.9853697 -1.3278348 15
15.561881 -2.763587 -1.4745667 14
19.968056 -3.5460663 -1.4181492 13
34.620117 -6.1480813 -1.6397368 20
5.0256677 -0.89249301 -1.4636345 11
5.3987565 -0.95874876 -1.4354292 15
5.7924809 -1.0286691 -1.3939614 18
6.4834495 -1.151376 -1.3996617 13
7.2645245 -1.2900848 -1.3901221 39
11.16008 -2.0160599 -1.3262087 15
15.518338 -2.8033757 -1.4712225 14
19.912289 -3.5971394 -1.4149402 4
34.420849 -6.2180996 -1.6311655 40
5.0343485 -0.90945113 -1.4669421 12
5.4111199 -0.97751462 -1.4394813 15
5.852602 -1.057268 -1.4091784 19
6.4684534 -1.168521 -1.3971667 12
7.0769234 -1.2784407 -1.3549432 38
8.2708454 -1.5194765 -1.3815911 33
9.0598516 -1.6644286 -1.2945882 12
11.214617 -2.0602906 -1.3334101 26
15.502119 -2.8479683 -1.4704795 14
19.669977 -3.6136653 -1.3984778 4
34.35902 -6.3122592 -1.6291157 20
5.0316277 -0.9243843 -1.4669421 12
5.3777485 -0.98797184 -1.4313772 18
5.9068618 -1.0851778 -1.4230119 12
6.4649582 -1.1877083 -1.3971667 12
7.119493 -1.307956 -1.3638304 56
8.2202759 -1.5324438 -1.3738093 26
10.211978 -1.9037416 -1.459926 45
11.916105 -2.2214291 -1.4175032 19
15.445669 -2.8794188 -1.4658349 14
21.543333 -4.0161605 -1.5324101 20
34.430756 -6.4186645 -1.6333082 20
5.0273008 -0.93720156 -1.4663908 12
5.4036741 -1.0073659 -1.4389747 16
5.925045 -1.1045612 -1.4280843 14
6.4483643 -1.2021196 -1.3942559 12
7.1450262 -1.3319931 -1.369385 80
8.2467184 -1.5627061 -1.3789972 23
15.450754 -2.9278297 -1.4671353 14
21.721466 -4.1160936 -1.5459429 20
34.435116 -6.5252576 -1.6344264 20
5.0396094 -0.95497727 -1.4708011 13
5.4139681 -1.0259161 -1.4425201 16
5.6674342 -1.0739464 -1.3667555 39
6.4313149 -1.2186974 -1.3913451 15
7.2105608 -1.3663601 -1.3827159 85
7.0519152 -1.3592613 -1.1799132 8
9.044982 -1.7434262 -1.2945882 6
15.425837 -2.9733403 -1.4656491 14
21.878866 -4.2171659 -1.5580806 15
34.24181 -6.6001315 -1.6262275 19
5.0441356 -0.97226042 -1.4730061 14
5.3537235 -1.0319337 -1.4273251 20
5.9239202 -1.1418395 -1.4294676 14
6.4140072 -1.2363042 -1.3884344 15
7.0807891 -1.3648267 -1.3586462 66
8.1540165 -1.5953211 -1.3650548 22
12.040123 -2.3556321 -1.4346935 27
15.333438 -2.9999642 -1.4576603 14
21.884628 -4.2816949 -1.5593363 15
34.185997 -6.6884394 -1.6244574 39
5.033854 -0.98486596 -1.4708011 14
5.3204398 -1.0409361 -1.419221 22
5.911159 -1.1565094 -1.4271619 14
6.4009309 -1.2523326 -1.3863553 16
7.3103414 -1.4302573 -1.403453 30
8.1686039 -1.6233543 -1.3682973 20
8.3937502 -1.6680979 -1.202734 12
12.132448 -2.4110928 -1.4465408 17
15.353767 -3.0512686 -1.4604472 14
21.840519 -4.3403864 -1.557104 21
34.146408 -6.7859473 -1.6235257 19
4.9988532 -0.99342674 -1.4614292 15
5.2698865 -1.0472894 -1.4065585 20
5.9134278 -1.175181 -1.4285452 14
6.3684053 -1.2655991 -1.380118 15
7.367753 -1.4642004 -1.4153028 16
8.1579475 -1.6464126 -1.3673245 24
12.082402 -2.4384341 -1.4414303 23
15.350502 -3.0979924 -1.4610045 14
20.947479 -4.2275577 -1.4943231 19
34.155495 -6.8931599 -1.6249231 19
5.0015368 -1.0093952 -1.4630831 15
5.2193413 -1.0533518 -1.393896 15
5.9060998 -1.1919514 -1.4276232 14
6.4432449 -1.3003564 -1.3971667 13
7.320991 -1.4775006 -1.407156 18
8.1845465 -1.6740922 -1.3725125 27
12.0137 -2.4573188 -1.4339966 33
15.338438 -3.1373711 -1.4606329 14
21.669338 -4.432313 -1.5466405 25
32.937508 -6.7371387 -1.567812 17
4.9913435 -1.0209446 -1.460878 14
5.2942839 -1.082909 -1.4146626 16
5.8819857 -1.2031194 -1.4225508 14
6.4532347 -1.3199644 -1.4000775 13
7.3190231 -1.4970554 -1.4075263 15
8.2065954 -1.7039858 -1.3770518 27
11.732113 -2.4360108 -1.401242 63
15.319313 -3.1808431 -1.459704 14
20.712568 -4.3006778 -1.4792558 19
33.032784 -6.8588004 -1.5733088 18
4.982645 -1.0345773 -1.4592242 14
5.3346186 -1.1076597 -1.4263122 16
5.8802958 -1.220962 -1.4230119 12
6.4799366 -1.3454691 -1.4067307 12
7.3337927 -1.5227605 -1.4112294 15
8.2031326 -1.7301666 -1.377376 27
10.063521 -2.122551 -1.445452 53
11.977083 -2.5261505 -1.4314413 46
15.293656 -3.2256665 -1.4582177 14
19.037651 -4.0153327 -1.3605303 4
33.323849 -7.0285101 -1.5882155 18
5.0075879 -1.056177 -1.4674934 13
5.3727612 -1.1331978 -1.4374552 16
5.8802395 -1.2402327 -1.4239341 14
6.4929061 -1.3694534 -1.4104731 12
6.8635807 -1.4476343 -1.3216158 91
8.0229464 -1.7141128 -1.34787 20
9.7170486 -2.0760598 -1.396463 97
11.459519 -2.4483411 -1.370346 21
15.277369 -3.2640295 -1.4574746 14
18.974394 -4.0539036 -1.3567634 4
33.254528 -7.1048732 -1.5857931 18
4.9916449 -1.0664713 -1.4636345 14
5.3773451 -1.1488767 -1.4394813 16
5.8560376 -1.25115 -1.4188619 14
6.5007777 -1.3888996 -1.412968 11
6.6829395 -1.4278187 -1.2875478 14
8.0020914 -1.735962 -1.3452761 26
11.333351 -2.4586406 -1.3561757 26
15.255363 -3.3094759 -1.4563599 14
21.76339 -4.7213178 -1.5572436 21
5.3718181 -1.1653543 -1.4389747 16
5.8710966 -1.2736671 -1.423473 14
6.5021172 -1.4105598 -1.4142154 12
6.6918654 -1.4517235 -1.2901399 19
10.155258 -2.2327783 -1.4613178 6
11.334203 -2.4919858 -1.3571049 31
15.230502 -3.3486428 -1.4548736 14
21.744276 -4.7807889 -1.5568249 15
4.9946165 -1.0981376 -1.4663908 6
5.3515353 -1.1766113 -1.4344162 18
5.8732195 -1.2913109 -1.4248564 12
6.5249019 -1.4345926 -1.420037 13
7.2367835 -1.5911099 -1.3960469 18
