# .PCD v0.7 - Point Cloud Data file format
VERSION 0.7
FIELDS x y z intensity
SIZE 4 4 4 4
TYPE F F F F
COUNT 1 1 1 1
WIDTH 1450
HEIGHT 1
VIEWPOINT 0 0 0 1 0 0 0
POINTS 1450
DATA ascii
32.898952 10.924898 3.2341259 18
33.773991 11.215476 4.1616797 20
8.2665262 2.7451012 1.2241668 6
7.0880041 2.3537443 1.407156 2
6.0816326 2.0007169 -0.14864194 9
7.4202905 2.4411044 0.36428243 5
7.0406942 2.316226 0.51829058 8
32.791241 10.787561 3.2205637 18
33.618362 11.059667 4.1386819 20
8.2986164 2.7300534 1.2277852 6
6.3383675 2.0851767 1.096259 1
7.0646772 2.3241158 1.4012312 3
6.4103761 2.0890465 -0.15653361 11
7.4137816 2.4160416 0.36363026 4
32.796623 10.687933 3.2181485 18
6.3497949 2.069304 1.0972317 4
7.059927 2.3007255 1.3990093 3
7.4593649 2.4049976 0.3654936 9
7.0486188 2.2725675 0.51787204 3
33.857281 10.916035 3.3188434 20
33.229652 10.713678 4.0829296 19
34.076771 10.9868 5.0319428 21
6.3337255 2.0420766 1.0933409 2
6.4009938 2.0465131 -0.15602297 14
5.8715458 1.8772389 0.14311777 3
7.404325 2.367296 0.36251226 6
33.12524 10.590735 2.4318502 21
34.23745 10.946329 5.0517054 21
6.4251666 2.0542414 1.108256 1
6.3535585 2.0093699 -0.46597326 3
6.7066956 2.1210525 -0.16331117 28
6.1440578 1.9431133 0 3
7.0269694 2.222342 0.17110999 6
7.4345827 2.3512535 0.36363026 8
33.921154 10.727869 2.4877949 22
33.912022 10.72498 3.3182859 20
34.156422 10.802275 4.1893234 20
8.4111176 2.6600912 1.4493575 2
6.5594172 2.0530834 -0.48062211 4
6.6213679 2.072474 -0.16108294 7
7.0831456 2.2170093 0.17231695 6
5.9124198 1.8505747 0.28891042 3
33.931896 10.62061 2.4862602 22
33.918991 10.616571 3.315871 20
34.463211 10.786911 4.2230072 21
8.3078508 2.6003394 1.4302273 8
6.6007481 2.0445375 -0.16043302 4
5.8911672 1.8247497 0.28760609 4
33.961353 10.519302 2.4861209 22
34.459015 10.67345 4.2185936 21
34.325924 10.632226 5.0503139 21
6.6217241 2.0307879 -0.16080441 4
5.8714089 1.8006772 0.28639492 3
34.108849 10.460695 2.4947705 22
33.840595 10.378426 3.3023088 20
34.598831 10.610967 4.2320671 21
34.594059 10.609503 5.0853853 22
6.2081356 1.8849936 0 1
5.8439174 1.774405 0.28481111 3
7.5579958 2.2948554 0.55233175 5
34.637836 10.517183 4.2332287 21
6.1278882 1.8407855 -0.74824286 7
6.855444 2.0593393 0.1661893 6
21.004923 6.3097687 1.0227858 4
7.5666838 2.2729921 0.55247128 7
7.5962281 2.281867 0.73997724 3
34.625137 10.40121 4.2278857 21
8.6037359 2.5567167 0.20838654 8
20.948858 6.2252374 1.0191523 14
34.445549 10.235962 2.5127678 23
7.6296873 2.2672651 0.74257821 1
34.452087 10.237906 4.2030292 20
6.4055839 1.903506 1.2590343 3
6.2400327 1.8329902 -0.76055479 10
6.6642652 1.9576072 -0.64801419 7
6.9062638 2.0286934 0.16711773 6
21.071829 6.189784 1.0241834 4
34.437347 10.115863 2.5098381 22
34.465794 10.124219 3.3513556 21
34.56414 10.153108 4.2127857 21
30.997831 9.0115833 2.2573195 16
34.505398 10.031291 3.3524702 21
34.723969 10.094832 4.2288146 21
5.974669 1.7188534 -0.58001733 10
7.6130772 2.1902072 -0.18392235 5
13.003856 3.741081 0.63101918 3
31.013296 8.9222193 2.2566221 16
34.583038 9.9491987 3.3573008 21
34.723392 9.9895782 4.2253304 21
6.4659209 1.8406479 -0.62720639 7
5.8624659 1.6688628 -0.28425211 3
30.78863 8.7645712 2.2384851 16
34.775986 9.8996487 4.2283506 21
30.996544 8.7185888 2.2515993 16
34.649132 9.7459745 3.3580437 21
7.000042 1.9478645 0 5
22.667215 6.3074861 1.0972261 5
31.047686 8.6394749 2.2535524 16
34.63401 9.6374226 3.3539567 21
7.0000057 1.925493 0 5
22.221598 6.1124997 1.074773 5
31.048178 8.5404291 2.251739 16
36.306004 9.9867001 3.5129874 24
7.2229548 1.966495 0.34909624 4
31.178234 8.488471 2.2595518 16
20.286615 5.4547653 0.97964954 13
31.127676 8.3697634 2.2539711 16
13.906915 3.6977506 0.33409622 5
20.324936 5.4042573 0.98076755 8
31.172134 8.2884502 2.2555058 16
31.452744 8.2573595 2.2739217 17
36.234306 9.4113131 2.6178207 25
7.2785864 1.866115 0 2
31.959749 8.1939764 2.3071256 18
13.944945 3.5363853 0.67089456 7
31.882458 8.0852709 2.3000104 17
14.025145 3.5124629 0.67424858 1
8.0504866 1.9908069 0.38673562 3
23.977852 5.8584766 1.1510766 19
22.312298 5.3855553 1.070394 5
22.332994 5.3163519 1.0705804 11
24.292557 5.711194 1.1637472 6
33.762783 7.9376497 2.425293 20
24.51569 5.6869383 1.173623 6
26.887836 6.1581388 1.2863549 8
10.962709 2.4765885 -0.26093578 8
33.392899 7.543798 2.3939025 40
19.332861 4.3107781 1.3850845 6
19.602751 4.3063602 0.93595427 11
33.417591 7.3412242 2.3925076 20
19.632269 4.2554145 0.93679279 11
33.621246 7.2876105 2.4056218 20
32.769424 7.102973 3.1282291 16
19.619413 4.1917133 0.93558168 15
33.664185 7.1923976 2.4071565 20
32.729988 6.992805 3.1224699 16
19.790115 4.1668277 0.94312811 19
19.870741 4.1838036 1.4199628 6
32.931812 6.933825 3.1397479 16
20.10487 4.1745052 0.95756906 16
32.845524 6.8199301 2.3457708 18
33.066086 6.8657265 3.1507092 17
32.863667 6.7220368 2.3456314 18
32.772205 6.7033296 3.1207976 33
19.909826 4.0145197 0.47155055 8
32.843193 6.6223407 2.3428409 37
32.878639 6.6294875 3.129158 16
33.017292 6.5555806 2.3538625 19
32.661823 6.485002 3.106678 16
7.2779551 1.4239216 -0.34583539 5
11.020041 2.1560555 -0.26070365 8
19.981045 3.9092634 0.94946355 7
32.855335 6.4281001 2.3410273 18
32.630947 6.3841987 3.1020336 32
7.2411933 1.3931255 -0.3438789 5
19.885324 3.8257165 0.94433933 3
32.638298 6.2792473 2.324146 36
7.3154774 1.3875674 -0.34723291 5
29.367903 5.570374 1.3939626 9
32.689907 6.2004766 2.3266573 18
33.203247 6.2978449 3.1529384 17
18.432072 3.4361544 0.87437099 6
33.623215 6.2681265 2.3916705 20
32.690399 6.0942283 3.1024053 32
5.4177642 0.99337029 -0.51387823 10
24.80508 4.5481181 1.1760453 7
32.542706 5.9668446 2.3135431 18
33.454594 6.1340432 3.1731887 35
8.516367 1.5354059 -0.20091265 4
17.088499 3.0808654 0 5
10.82649 1.9518952 0.25541162 3
20.882275 3.7648411 0.9895252 9
33.068813 5.9619379 2.3496771 19
33.406021 6.0227327 3.1668723 17
8.7884941 1.5607238 0 1
19.023153 3.3782678 0.44857183 8
11.72953 2.083014 0.55555397 4
33.052876 5.8697662 2.3474448 18
33.472649 5.9443126 3.1717024 17
11.228277 1.9596469 0 4
20.632481 3.6009424 0.4862662 9
11.717948 2.0451081 0.55471551 4
32.826435 5.7291269 2.3301454 18
33.395977 5.8285279 3.1627848 17
17.027487 2.91974 0 9
20.712048 3.5515394 0.48789093 9
19.108053 3.276499 0.90409124 7
32.790195 5.6226058 2.3263783 18
33.236481 5.699131 3.1460643 17
8.0663986 1.3585355 0 4
17.759041 2.9909616 0.41811928 7
18.008535 3.0329812 0.85163832 9
33.048729 5.5660367 2.3435385 18
33.137386 5.5809689 3.135103 33
8.0092239 1.3244858 0 4
12.68821 2.0982502 0.29858369 8
11.889428 1.9661555 0.56198251 6
33.116276 5.4764404 2.3471658 18
33.589954 5.5547729 3.176347 17
6.7320747 1.0939767 -0.6363098 9
7.5561886 1.227897 -0.53531116 4
8.0800114 1.3130194 0 2
20.598183 3.3472493 0.48450217 18
20.821947 3.3836114 0.98374897 4
33.123562 5.3826509 2.3466079 37
4.9865308 0.7960366 -0.35310727 4
7.7655544 1.2396727 0.18257612 2
20.716887 3.3071892 0.97834522 4
33.102997 5.2844753 2.3440964 18
33.744347 5.386858 3.1880517 35
6.802289 1.06521 -0.4814592 4
11.698245 1.8318962 0.27490869 7
20.872669 3.2685726 0.98523957 8
33.099144 5.1831875 3.1256282 16
17.491734 2.6891131 0.41087753 14
20.733618 3.1875083 0.97825211 12
33.132885 5.0937247 2.3440964 37
33.194183 5.1031489 3.1332455 16
20.829679 3.1353173 0.48905149 9
25.427616 3.8274059 1.1991507 7
32.815308 4.9394135 2.320519 18
6.7086921 0.99065369 -0.47420451 3
20.838354 3.0771413 0.48905149 9
20.752169 3.0644145 0.97825211 12
32.663181 4.8232803 2.3088 36
33.13129 4.892405 3.1245134 16
4.9995131 0.7240051 -0.35324678 4
8.5844536 1.2431587 0 1
21.367294 3.0943072 0.50126034 9
10.216214 1.4794623 0.48139319 5
32.745628 4.7420621 2.3136828 18
25.064564 3.6297278 2.3627994 13
5.0755377 0.72055048 -0.23906618 4
5.2097626 0.73960578 0 1
21.290728 3.0225456 0.49926421 9
11.885777 1.6873686 0.55983967 4
26.518698 3.7647362 1.8729613 31
25.025314 3.5527275 2.358155 6
8.3745708 1.1620686 -0.39428216 1
5.0852757 0.70564085 0 4
7.6605172 1.0629854 0.17955872 7
25.86381 3.588903 1.2176909 22
24.581869 3.4110188 1.7354015 18
24.876585 3.4519138 2.3431063 20
25.026041 3.4726527 2.9546416 7
5.1051836 0.69297147 0 4
26.119823 3.5454733 1.2292435 7
24.684801 3.3506851 1.7419587 28
24.774239 3.3628254 2.3325167 19
25.02639 3.397052 2.9534802 14
9.5244846 1.2640703 0 5
25.999517 3.4506032 1.2230946 22
24.627388 3.268497 1.7372153 28
24.782137 3.2890348 2.3323309 19
25.010761 3.3193774 2.9504602 14
5.1408234 0.66767466 0 4
5.1590171 0.67003757 0.24260651 6
24.509796 3.1832585 1.7282864 18
24.277784 3.1531255 2.2840271 19
24.972656 3.2433734 2.944885 14
5.1687951 0.65663874 -0.24297917 7
15.515302 1.9710488 0 11
24.579525 3.1225591 1.1554555 13
5.1439953 0.65348816 0.36259416 5
24.254887 3.0813174 2.2810545 19
25.026939 3.1793981 2.950228 7
7.6551332 0.94807065 -0.35971728 6
7.6554346 0.94810796 -0.17909451 3
15.211784 1.8839445 0 11
24.668522 3.0551398 1.1591821 20
24.395596 3.0213385 1.7189391 27
24.128086 2.9882081 2.2682354 18
24.861349 3.079021 2.9295533 14
7.6301718 0.92470491 0 3
5.1308422 0.62180972 0.24102268 4
24.500471 2.9692261 1.7257752 27
24.214901 2.9346178 2.2756667 18
24.904821 3.0182295 2.9337344 21
26.122272 3.1657732 3.6981077 8
7.7634768 0.91749692 -0.36456192 3
15.740459 1.8602263 0 11
5.1822648 0.61244625 0.24335185 4
24.570595 2.9037821 1.7301002 28
23.927298 2.8277566 2.8175838 6
25.254333 2.9845874 3.5739653 16
7.6432667 0.8789497 -0.35878557 3
15.531641 1.786086 0 7
7.6750231 0.88260162 0.36027625 3
24.432922 2.8097034 1.7197762 27
24.930719 2.8669481 2.3412485 13
24.837934 2.8562782 2.9237454 7
25.283262 2.9074895 3.5767488 24
8.2502613 0.92541313 0 5
7.6893702 0.86249918 0.36083525 4
24.744026 2.7754815 1.7411215 28
24.473577 2.7451458 2.2975893 26
25.621632 2.8739202 3.0150402 30
25.393629 2.848346 3.591223 24
6.2712288 0.6857062 -0.58856338 2
24.979813 2.7313328 1.1718528 20
24.366917 2.6643178 1.714056 27
24.534597 2.6826522 2.3026056 19
25.828999 2.8241842 3.0385025 23
25.799185 2.820924 3.647449 34
24.805498 2.6334321 1.1632814 20
7.7256155 0.82017636 0.54326344 5
24.49538 2.6005089 2.2981467 19
23.890038 2.5362439 2.8094532 13
25.272223 2.682981 3.5717387 24
14.16473 1.4637798 0.3306146 4
24.72134 2.5546975 1.1589957 20
7.7278757 0.79859686 0.54326344 5
24.272772 2.5083425 2.2765958 25
25.542986 2.639606 3.0029604 22
24.759523 2.5586433 3.4982555 15
14.150857 1.4224283 0.3301968 4
25.374414 2.5506077 1.189275 21
7.7538962 0.77941293 0.54493755 5
24.186558 2.4312055 2.267864 18
25.113447 2.5243754 2.9516218 21
25.657286 2.5790415 3.6240678 33
25.660934 2.5794082 4.2371821 6
8.8047667 0.8571108 -0.41254285 4
12.656746 1.2320865 -0.29524133 4
12.650776 1.2315053 0.29510206 4
25.32464 2.4652584 1.1865731 21
7.7721934 0.75659376 0.54605371 5
24.691553 2.4036298 2.3144956 19
24.800962 2.4142802 2.9139888 21
24.922113 2.4260738 3.5191314 32
25.670876 2.4989631 4.2375064 18
12.674071 1.1980507 0.29556629 4
17.309938 1.6362687 0.81083119 8
25.092596 2.3719454 1.762467 38
24.888693 2.3526707 2.9235134 28
25.04118 2.367085 3.534997 48
25.526466 2.4129581 4.2125397 17
10.324046 0.94501293 -0.24069597 1
12.460536 1.1405768 0.29050633 3
25.125542 2.2998698 1.1766043 7
24.771698 2.2674809 1.7394474 9
24.679209 2.2590146 2.3120804 6
24.992493 2.2876911 2.934896 21
24.963284 2.2850175 3.5230281 24
25.785074 2.3602402 4.2540426 18
15.918918 1.415128 0.37104779 12
25.360323 2.254431 1.1873184 21
25.065706 2.2282407 1.7596768 19
24.244692 2.155256 2.2708364 18
24.96278 2.2190909 2.9307146 21
24.921833 2.215451 3.5163479 24
25.751848 2.2892361 4.2475576 18
15.781607 1.3557341 0.36775187 11
16.676388 1.4326012 0.78055197 10
29.147213 2.5039194 2.0456784 12
24.191462 2.0781908 2.2652631 18
24.862379 2.1358266 2.9181702 21
24.979605 2.1458969 3.5235848 32
25.402628 2.1822371 4.1888704 23
10.232882 0.84849447 0 8
18.726671 1.5527859 0.43627015 7
16.845819 1.3968287 0.78828484 2
23.965036 1.9871429 1.6815495 17
24.161797 2.003458 2.2619188 18
24.886423 2.0635428 2.9202611 21
24.946384 2.0685148 3.518018 32
25.540766 2.1178 4.2105947 23
16.1364 1.2869629 0.37582922 6
23.326498 1.8604112 1.0912634 11
24.020884 1.915792 1.6850375 27
24.684086 1.9686859 2.3102226 19
25.278919 2.0161269 2.9655597 29
25.023836 1.9957827 3.5280383 32
24.957108 1.9904608 4.1133223 17
25.749746 2.053678 4.8669081 12
15.874357 1.227046 0.36965513 11
24.048054 1.8588513 1.1248035 25
24.387526 1.8850915 1.7104287 27
24.349314 1.8821379 2.2784536 25
24.034039 1.8577681 2.8189776 6
25.050358 1.9363267 3.5311003 32
24.946154 1.928272 4.1107283 16
14.310859 1.060971 0.33316779 5
24.189257 1.7933304 1.1311389 19
24.644024 1.8270458 1.7280074 28
24.251841 1.7979703 2.2687929 25
24.152674 1.7906184 2.8322186 6
25.11952 1.8622979 3.5400071 32
25.019005 1.8548459 4.1217523 23
25.819616 1.9142013 4.8780174 4
15.73397 1.1195495 0.36621994 17
14.370012 1.0224973 0.67182624 1
24.334904 1.7315483 1.7059643 27
24.735773 1.7600722 2.3135669 26
23.900293 1.7006236 2.8020196 6
25.089375 1.7852328 3.534997 32
25.057863 1.7829906 4.1272645 23
15.661232 1.0704218 0.36445594 11
14.370819 0.98222411 0.67173308 3
24.564568 1.6789515 1.7217293 27
25.102173 1.7156961 2.3473794 27
24.128897 1.6491741 2.8282695 19
24.963852 1.7062421 3.5166264 32
25.109999 1.716231 4.135046 23
15.800013 1.0328209 0.3676126 17
14.353734 0.93828005 0.6708014 5
24.579395 1.6067147 1.7224269 27
24.981968 1.6330303 2.335675 26
24.615366 1.6090661 2.8847189 20
25.006355 1.6346245 3.5219147 32
24.937742 1.6301394 4.1058645 28
24.411957 1.5230467 1.1406419 26
24.490465 1.5279448 1.7158698 27
24.958876 1.5571687 2.3330741 26
24.715197 1.5419656 2.8958693 28
24.932028 1.5554936 3.510781 32
24.981861 1.5586027 4.1123495 23
25.304716 1.5787454 4.7769241 11
15.86642 0.94819772 0.74123555 6
24.542181 1.4666724 1.7192181 27
25.117918 1.5010792 2.3475652 27
24.73303 1.4780779 2.8974955 42
24.767969 1.4801658 3.4871216 31
25.127699 1.5016638 4.135695 23
25.342115 1.5144776 4.7832198 3
15.871314 0.89846325 0.74132872 6
24.538696 1.3891172 1.71866 27
25.005207 1.415526 2.3366039 20
25.108427 1.4213693 2.9409359 29
24.863455 1.4075016 3.4999254 31
25.057419 1.4184817 4.1233735 17
25.333012 1.4340829 4.7806273 15
9.5300226 0.50945455 0.44505811 5
24.957336 1.3341656 1.7476786 28
25.051291 1.3391882 2.3405054 20
24.896551 1.3309163 2.9156151 28
24.731293 1.3220818 3.4807196 31
25.024307 1.3377458 4.1172132 23
25.237297 1.3491318 4.7617416 7
24.573967 1.2534658 1.7206131 27
25.010735 1.2757443 2.3364182 20
24.885843 1.2693739 2.9139888 28
24.807634 1.2653847 3.4910183 31
25.033411 1.276901 4.1181855 23
25.216967 1.2862638 4.7572985 11
15.784628 0.75818676 0.73694986 14
24.378298 1.1709685 1.7066619 27
24.678259 1.1853766 2.3050206 13
24.822037 1.1922827 2.9060905 21
25.034822 1.2025036 3.5224714 24
24.885303 1.1953217 4.0932193 16
25.23245 1.2119962 4.7595201 7
24.393814 1.0949175 1.7074989 27
24.425236 1.0963279 2.2810545 25
25.085625 1.1259695 2.9365222 14
25.355043 1.1380624 3.5670068 24
24.946112 1.1197075 4.102622 5
24.462557 1.0295656 1.7121029 36
24.400347 1.0269474 2.2784536 19
25.118443 1.0571702 2.9400065 21
24.455795 1.029281 3.4400809 23
24.214146 0.9513725 1.6945243 18
24.454853 0.96082997 2.2832839 19
25.059765 0.98459685 2.9328053 21
25.511408 1.0023419 3.5881612 16
24.242781 0.88048089 1.6963379 27
24.393917 0.88597006 2.2773387 19
25.286898 0.91840249 2.9590554 7
25.482605 0.92551041 3.5837078 8
25.234835 0.9165116 4.1486645 5
24.579395 0.82397658 2.294431 25
33.657608 1.128306 3.938206 34
33.945145 1.1379452 4.7733593 18
5.5414438 0.16834046 0 3
24.29524 0.73805165 2.267678 25
34.099789 1.0358987 3.9895446 17
25.362131 0.77046216 4.168767 5
6.485816 0.1777672 -0.15063807 4
10.327338 0.28305799 0.23986037 6
24.681511 0.67648584 2.3035343 26
34.198025 0.93732035 4.0006948 17
33.842575 0.92757797 4.75805 17
6.6361728 0.16450401 -0.15411969 4
6.5779796 0.16306147 0 3
8.8888731 0.22034617 0.20643681 8
24.545837 0.60846645 2.2907155 19
34.283768 0.84985995 4.0104513 18
7.8715701 0.1717578 -0.3671706 3
8.7139263 0.19013803 0 6
10.338301 0.22558191 0.48223168 5
25.858688 0.56423706 1.8086458 10
24.551516 0.53571451 2.2910869 19
8.6784582 0.1636055 0 6
9.0119705 0.16989283 0.20926856 11
10.342921 0.1949838 0.48241803 3
26.005867 0.49026018 1.8188303 10
25.930769 0.48884445 2.4196494 7
5.5352702 0.088889234 -0.25816539 3
8.9668446 0.14399584 0 3
9.1083717 0.14626858 0.21149679 8
15.846734 0.25447792 0.73909271 8
26.084934 0.41889006 1.8242712 20
7.7933502 0.10066383 0 5
11.799836 0.15241414 0.27398026 10
33.611118 0.43414244 2.3505142 57
7.7936282 0.076177604 0 5
8.9691544 0.087667599 0.20824726 8
9.0757036 0.088709049 0.42325705 4
33.747978 0.32986432 2.3600008 38
7.7777915 0.057017829 0 5
8.9833374 0.065855511 0.20857221 8
9.0758924 0.06653402 0.42325705 4
33.806541 0.24783072 2.3640471 38
7.7318425 0.033737045 -0.17951229 3
7.7899261 0.033990484 0 5
8.9874926 0.039215934 0.20866507 8
9.0500784 0.039489023 0.42204589 4
9.0498161 0.039487872 0.63283074 6
8.0279942 0.0098098833 0 1
9.0195627 0.011021539 0.20940781 5
9.03018 0.011034513 0.42111421 3
9.0678511 0.011080545 0.63408631 6
8.8955946 -0.0124206 0.20652968 2
9.0401669 -0.012622462 0.42158005 4
9.0698442 -0.012663899 0.63422585 6
9.0779133 -0.039610121 0 21
8.8695259 -0.038700853 0.20592619 7
22.712322 -0.099101834 1.5882155 8
9.043746 -0.067873821 0 9
8.883357 -0.06667009 0.20625114 8
10.304512 -0.077335939 0.4805547 11
22.717886 -0.17049901 1.5886339 24
8.867156 -0.089764483 0.20587978 7
10.302275 -0.10429256 0.48046148 2
22.555765 -0.22833775 1.5773335 24
8.0256958 -0.1064631 -0.56126058 5
8.9947844 -0.11931834 0.20885074 11
11.802135 -0.15655863 0.55042982 5
22.479128 -0.29819193 1.5720319 23
9.064414 -0.14397763 0.21047552 8
11.815668 -0.1876781 0.55108202 5
22.458321 -0.3567242 1.5706367 23
22.405863 -0.35589096 2.090626 15
8.0748453 -0.15222527 -0.56474841 5
9.1663713 -0.17280249 0 6
11.849016 -0.22337514 0.55266583 1
22.536955 -0.42486191 1.5762173 32
21.697906 -0.40904433 2.0246727 28
8.9478703 -0.19524324 0 6
21.707813 -0.47366616 1.5183194 22
21.616961 -0.47168377 2.0172415 13
9.2390785 -0.23063873 0.43098992 4
21.732147 -0.54250813 1.5201331 22
21.675095 -0.54108387 2.022815 9
9.172039 -0.25299412 0.2130287 8
9.2444344 -0.25499102 0.43126941 4
21.77054 -0.600501 1.5229234 22
21.687536 -0.59821153 2.0241153 4
22.72047 -0.62670314 2.6579926 5
9.2256651 -0.28186956 0.43043092 4
9.2889729 -0.28380379 0.64985126 6
21.719503 -0.66359091 2.0272739 4
10.540557 -0.35519144 0.49182788 5
9.2940178 -0.31318608 0.65026987 6
22.778103 -0.76756734 2.1262965 16
22.138487 -0.74601382 2.5903931 10
10.531671 -0.38065714 0.4914552 5
9.2912302 -0.33582261 0.65013033 6
22.175161 -0.80149996 2.07019 15
22.29541 -0.80584627 2.6089773 5
6.1152821 -0.24027009 0 3
10.334786 -0.40605488 0.48232484 3
9.2841492 -0.36477521 0.64971179 6
9.3302526 -0.36658666 0.8711406 3
22.231236 -0.87346768 2.6017759 21
12.181875 -0.51483166 0.56859738 6
9.2890053 -0.39257288 0.65013033 6
9.3370829 -0.39460474 0.87188381 2
22.097557 -0.93388915 2.5864439 10
5.1543646 -0.23225544 -0.48136604 8
8.8370342 -0.39819637 0 6
12.251622 -0.55205756 0.85758609 7
12.07128 -0.54393131 1.1273366 4
21.78529 -0.98164415 2.550205 5
8.9156466 -0.42980891 0 6
9.4924154 -0.45761403 0.22064184 8
12.261784 -0.59112078 0.85842317 7
12.093379 -0.58300227 1.1295661 4
21.492409 -1.0361143 2.516289 14
12.351851 -0.62787908 0.86484075 7
21.544504 -1.0951673 2.0125968 13
22.318897 -1.1345319 2.6133909 16
8.8531094 -0.47791761 0 6
9.0543737 -0.48878244 0.21052194 19
12.381694 -0.66840124 0.86707294 7
21.572775 -1.1645635 2.0155694 13
22.194221 -1.1981112 2.5992203 21
8.3162642 -0.47223166 -0.58246654 5
8.6281013 -0.48993906 0 9
8.9072475 -0.50579017 0.20713316 52
12.216443 -0.69369984 0.8556329 10
21.581366 -1.2254786 2.0166841 13
21.811985 -1.2385743 2.5548508 20
5.7725887 -0.34497711 -0.53951639 2
8.4721603 -0.50630689 -0.5934881 11
8.930068 -0.53367203 0 6
9.482523 -0.56668746 0.220549 17
8.8725119 -0.53023237 0.41449937 10
12.246195 -0.73184794 0.8578651 10
21.531916 -1.2867743 2.0124111 13
8.8104916 -0.54967791 -0.20495135 13
5.90452 -0.36837718 0 4
9.46105 -0.59026557 0.22008477 14
8.8950205 -0.55495155 0.41561741 12
9.4524956 -0.58973187 0.66226798 6
21.61791 -1.3487201 2.0207715 14
22.066431 -1.3767028 2.5855145 21
5.6483555 -0.37021279 -0.13141952 9
5.6917877 -0.37305951 0 13
5.9256854 -0.38838995 0.13787213 4
8.9769621 -0.58838123 0.41953039 27
9.4426317 -0.6189028 0.6617099 6
21.816248 -1.4299126 2.0397213 24
22.111555 -1.449268 2.5913222 21
5.5994239 -0.38271224 -0.13030541 4
5.5829749 -0.38158795 0 6
5.8228426 -0.39798257 0.13550463 6
9.4528103 -0.64608538 0.66254699 6
21.936981 -1.4993597 2.5713441 21
22.349703 -1.5275687 3.1483743 13
8.7421541 -0.6251117 -0.40872303 15
8.3663788 -0.59824175 -0.19473858 9
5.5857387 -0.39941078 0 4
5.5742621 -0.39859015 0.12974834 6
21.062523 -1.5060853 1.9700522 13
21.870739 -1.5638772 2.5641429 20
5.5624404 -0.41336071 -0.52038068 7
8.4823189 -0.63034517 -0.19747746 15
8.5244951 -0.63347942 0 12
8.6478186 -0.64264393 0.20133045 10
10.005508 -0.74353766 0.467884 5
11.661291 -0.86658365 0.81768537 9
21.487186 -1.5967737 2.0101817 18
21.830629 -1.622296 2.5599616 20
8.4465208 -0.65289032 -0.19668828 11
8.6162977 -0.66601354 0 19
8.6897306 -0.67168963 0.20235172 13
10.560986 -0.81633198 0.49397069 7
11.598993 -0.89656681 0.81349999 9
21.174612 -1.6367329 1.9813852 13
21.160255 -1.6356232 2.4819083 9
5.8450398 -0.46720055 -0.41002855 2
8.4667082 -0.6767534 -0.19719893 12
8.5427542 -0.68283188 0 13
9.1662884 -0.73267162 0.21349292 11
8.8919458 -0.71074319 0.41599002 5
11.588652 -0.92629385 0.81294191 9
21.184151 -1.6932727 1.9826857 13
22.407352 -1.7910447 2.6287229 22
21.173719 -1.692439 2.9852631 6
5.9510822 -0.49240521 -0.41756225 1
8.8919182 -0.73573619 0.41608319 4
11.603915 -0.9601326 0.8141976 2
21.421457 -1.7724569 2.0053513 18
20.99074 -1.7368184 2.4630919 13
5.9415545 -0.51041549 -0.4170042 3
8.2872362 -0.71192378 -0.19311383 13
12.626463 -1.0846896 1.1823287 4
20.878305 -1.7935727 2.4505477 18
8.2473745 -0.73170602 -0.19223182 6
9.1077623 -0.80803955 0.21228595 8
12.597635 -1.1176606 0.88437259 8
12.627351 -1.120297 1.1827002 4
20.79011 -1.844496 2.4407911 9
21.690796 -1.9244047 3.0604169 18
6.2758632 -0.57667083 -0.14632086 4
8.9439011 -0.82182914 0.20852579 8
9.4220247 -0.86576253 0.44123825 8
9.4371023 -0.86714798 0.66268647 8
21.396555 -1.9660674 2.0046082 13
20.995869 -1.9292495 2.4656472 18
21.582088 -1.9831154 3.0459428 18
9.154892 -0.8686164 0.42884707 9
9.4205847 -0.89382529 0.6617099 8
20.391472 -1.9347435 1.9109731 4
21.235275 -2.0148034 2.4944527 4
21.473583 -2.0374141 3.0314689 6
8.4914179 -0.82810211 0.19808094 10
9.4043121 -0.9171297 0.66073328 8
20.400211 -1.9894744 1.9122735 12
21.249697 -2.0723181 2.4967754 9
21.418894 -2.0888188 3.0245099 6
8.7881155 -0.8833673 0.41189069 22
9.9315786 -0.99830633 0.69798326 9
20.680151 -2.0787356 2.4305696 4
21.993929 -2.2107944 3.1066222 12
5.6179805 -0.5815528 0 3
9.1625576 -0.94847453 0.21386428 13
8.493763 -0.87924325 0.5971154 8
20.524721 -2.1246443 1.9250926 24
21.509703 -2.2266057 2.5288332 15
21.350962 -2.2101736 3.0167162 24
21.548426 -2.2306144 3.5591941 4
8.4892902 -0.90274787 0.59697592 8
20.530586 -2.1832147 1.9262073 16
21.414509 -2.2772107 2.5183797 19
21.313196 -2.2664371 3.0122628 24
9.046196 -0.98912179 0.42437506 5
8.4707079 -0.92619729 0.59585983 8
20.529959 -2.2447701 1.9267646 16
21.372114 -2.3368526 2.5141983 19
21.209906 -2.3191164 2.9986238 12
21.54307 -2.3555448 3.5604911 4
9.1303072 -1.024128 0.64245707 8
20.422684 -2.290771 1.9172897 12
21.324049 -2.3918753 2.5093198 19
21.163982 -2.3739209 2.9930568 24
9.3908386 -1.0815744 0.66101235 6
20.488993 -2.359786 1.9241637 12
21.255684 -2.4480884 2.5021186 19
21.209969 -2.4428234 3.0005724 12
9.4056139 -1.1098988 0.66226798 6
20.565384 -2.4267948 1.9319665 8
20.126253 -2.3749757 2.3699391 12
21.305344 -2.5141129 3.0150464 24
7.3916678 -0.89710814 -0.34723291 3
9.3959398 -1.1403617 0.66184944 6
9.4394407 -1.1456412 0.88711804 3
20.100521 -2.4395497 2.3678484 8
21.477772 -2.6067033 3.0406542 24
6.2112322 -0.77034742 -0.58391875 7
7.4527378 -0.92432499 -0.35021421 3
20.854959 -2.586534 1.9605774 13
20.971319 -2.6009655 2.4712224 18
21.535734 -2.6709671 3.0498397 25
6.1299 -0.77873462 -0.57648742 7
20.722738 -2.6325898 1.948873 12
20.782213 -2.6401455 2.4498506 18
21.179955 -2.6906741 3.0005724 18
5.9549284 -0.77446705 -0.7022472 5
6.297389 -0.81900567 -0.5924648 7
20.701012 -2.692266 1.9475726 12
20.943699 -2.7238286 2.4698286 18
21.138491 -2.7491622 2.9958403 24
6.261374 -0.8332212 -0.58930647 5
20.746229 -2.7607677 1.9525886 12
21.14031 -2.8132093 2.4939878 9
6.4418612 -0.87440866 -0.30316496 3
20.85338 -2.8306069 1.9633641 17
21.060041 -2.8586586 2.4853928 4
20.993279 -2.8495963 2.9774694 11
6.0688901 -0.84212804 -0.42844427 4
8.0845385 -1.1218225 0 4
20.292601 -2.8158309 1.9113445 8
20.73468 -2.8771746 2.4479921 18
21.10832 -2.9290214 2.9950054 18
21.852844 -3.0323327 3.6246908 4
6.0466108 -0.85733032 -0.42704913 5
7.3287058 -1.0391146 -0.17185274 5
8.1187983 -1.1511394 0 4
8.3363533 -1.1819857 0.19548132 7
9.0495558 -1.2831086 0.42623839 4
13.231627 -1.8760717 1.2467957 5
20.88143 -2.9607134 2.4663441 13
21.607416 -3.0636489 3.0670969 12
21.808578 -3.0921712 3.6188543 18
6.178309 -0.89471114 -0.43653601 5
9.9158649 -1.4359651 0.2326186 12
9.0555954 -1.3113852 0.42670426 4
20.892395 -3.0255301 1.9694951 13
21.559031 -3.1220689 3.0615301 25
21.793449 -3.1560161 3.6178818 13
5.8349595 -0.86267251 -0.5502919 2
6.0907588 -0.90049124 -0.43053696 4
20.741489 -3.0665357 1.9561185 25
21.614162 -3.1955566 2.5550833 20
21.94408 -3.2443333 3.6444695 13
11.042051 -1.6640397 0.78085393 7
20.721031 -3.1226645 1.9550039 17
21.575689 -3.2514615 2.5515985 20
21.42906 -3.2293644 3.0456643 25
21.9564 -3.3088346 3.648036 9
9.0815535 -1.3945397 0 6
9.8024311 -1.5052359 0.23025109 9
11.053138 -1.6972911 0.78197008 7
20.956295 -3.2179942 1.9780411 18
21.354473 -3.2791374 2.52651 20
21.46694 -3.2964075 3.0523448 25
8.9485054 -1.4012985 -0.21028982 4
10.6347 -1.6653495 0.50198305 6
10.710994 -1.6772968 0.75811338 6
20.730246 -3.2462697 1.9576049 13
20.987467 -3.2865496 2.4842312 19
21.476633 -3.3631508 3.0551283 25
9.3606577 -1.4959834 0.22008477 20
10.652477 -1.7024368 0.75434649 6
22.601788 -3.6121283 2.1354001 16
21.057463 -3.3653207 2.4937556 19
21.571569 -3.4474831 3.070159 25
21.434978 -3.4256535 3.5663273 13
7.4223976 -1.2074844 0.17459162 9
10.25194 -1.6677976 0.48437452 8
10.65556 -1.7334589 0.75490457 6
20.588755 -3.3494027 1.9460862 12
20.989164 -3.414542 2.4867866 19
21.690878 -3.5286977 3.0885298 25
21.450651 -3.4896171 3.5705423 13
9.050087 -1.4998548 0.21298227 22
10.148398 -1.6818761 0.47971618 10
14.071241 -2.3320019 0.99737805 10
20.543365 -3.4046154 1.9427421 12
21.012255 -3.4823236 2.4907355 19
21.668589 -3.5910969 3.0868595 25
21.459673 -3.5564735 3.5737848 8
8.8644724 -1.4945395 0.20871149 19
10.00773 -1.6872915 0.47328767 10
11.774665 -1.9851946 0.83498496 9
10.644889 -1.7947156 1.0071344 3
20.76935 -3.5016878 2.4630919 18
22.802917 -3.8445451 3.2499704 14
6.8617692 -1.1778346 -0.16163999 4
7.2913694 -1.2515762 0.1717599 8
9.1402445 -1.5689389 0.43248057 3
11.754957 -2.0177588 0.8340084 7
20.376217 -3.4976132 1.9288085 12
20.615948 -3.5387633 2.4461339 18
20.983873 -3.6019182 2.9922221 6
8.9744453 -1.5662913 0.4248409 4
10.04919 -1.7538643 0.71332973 6
20.291824 -3.5414901 1.9217486 12
20.433777 -3.5662649 2.4256914 17
22.423359 -3.9135022 3.1990333 6
7.2330585 -1.2831947 0 3
8.6033087 -1.5262865 0.20286237 10
10.010858 -1.7759954 0.710958 6
20.162252 -3.5769234 1.9104158 8
20.527405 -3.6417038 2.4380033 4
22.37529 -3.9695313 3.1937447 20
8.4784451 -1.5316244 0.20003064 10
8.6818867 -1.5683761 0.41142488 25
10.034678 -1.8127567 0.71305066 6
19.841291 -3.5843139 1.8810619 11
21.280197 -3.8442509 2.5288332 35
22.30229 -4.0288911 3.1851158 27
7.4138937 -1.3620417 0.17500941 9
8.771512 -1.6114564 0.41589686 45
11.818863 -2.1712997 0.84028649 7
19.728724 -3.6244581 1.8714012 11
20.797838 -3.8208699 2.4728484 18
8.3017979 -1.5476412 0.39381632 11
11.866094 -2.212106 0.84405333 5
11.812316 -2.2020805 1.12102 5
20.658878 -3.8512781 2.4575167 18
21.16576 -3.9457719 3.0259018 6
7.8421788 -1.4874661 0 5
7.4098544 -1.405465 0.17510225 9
7.7276731 -1.4657472 0.36679795 30
19.854658 -3.7659342 1.4131267 19
11.781861 -2.234726 1.1187906 4
21.094883 -4.0011744 3.0175514 24
7.8674531 -1.5150325 0 5
7.3960838 -1.4242611 0.17487015 6
7.7157021 -1.4858099 0.36642525 13
19.777452 -3.8085368 1.4083831 19
12.800218 -2.4649334 1.2161413 5
20.286499 -3.9065635 2.4159348 13
21.151697 -4.0731745 3.0272934 6
6.0681019 -1.1872151 -0.576859 7
8.9008017 -1.7414286 0.21056835 11
7.6210699 -1.491051 0.36213958 2
11.567897 -2.2632418 0.82424253 4
20.273909 -3.9665599 1.927322 20
19.947304 -3.9026601 2.3769081 20
21.228928 -4.1534081 3.0400975 6
6.2735405 -1.2467465 -0.59673786 10
6.7544289 -1.3423139 -0.32114619 1
8.9524679 -1.7791324 0.21191457 11
8.8844156 -1.7656082 0.42241856 4
11.568959 -2.2991099 0.82480055 7
20.215176 -4.0173807 1.9228632 37
19.803146 -3.9354978 2.3611116 16
20.794979 -4.1326056 2.9796965 18
22.363007 -4.444221 3.7459569 4
6.1936855 -1.2499911 -0.58949226 7
6.6857905 -1.3493062 -0.31807169 3
9.0039883 -1.817158 -0.2132608 6
8.9334307 -1.8029182 0.21158962 11
12.437449 -2.5100889 0.59170276 4
10.365198 -2.0918734 0.73941863 6
20.027485 -4.0418873 1.9061426 24
19.736862 -3.9832344 2.3546071 16
20.794273 -4.1966381 2.9813664 18
20.817566 -4.2013388 3.4891582 8
8.7015219 -1.7814182 0 6
8.9185677 -1.825853 0.21135752 11
9.9799356 -2.0431414 0.47505784 5
10.3945 -2.1280129 0.74192989 6
19.883461 -4.0706396 1.8935094 15
19.906649 -4.0753865 2.3762109 37
20.718443 -4.2415814 2.9721811 23
20.838623 -4.2661853 3.4946702 12
5.8271565 -1.2099284 -0.69597501 9
6.6574016 -1.3823173 -0.47546014 3
7.3041043 -1.5165962 -0.34788507 8
8.5104809 -1.7670835 0 6
8.7529011 -1.8174188 0.20755094 11
8.8416052 -1.8358368 0.42111421 3
10.449074 -2.1696055 0.7462548 9
11.891624 -2.4691312 1.133096 5
20.622614 -4.2820001 2.4630919 18
20.737543 -4.3058639 2.9766345 11
5.666194 -1.1950872 -0.54025954 7
6.0888467 -1.2842311 -0.43514088 4
8.5425711 -1.8017591 -0.40713921 34
8.4637918 -1.7851435 0 7
8.776494 -1.8510972 0.20824726 11
10.621807 -2.2403021 0.75909001 9
19.592014 -4.132256 1.8680569 15
20.605173 -4.3459468 2.4626274 18
22.221914 -4.6869426 3.1917963 6
5.8705997 -1.2542613 -0.70201486 5
6.0932679 -1.3018346 -0.43569893 4
8.176383 -1.746895 -0.38990334 23
8.564353 -1.8297851 -0.20332657 6
8.3945465 -1.7935057 0 6
8.6875401 -1.8561041 0.20625114 13
8.9266176 -1.9071834 0.42567939 5
10.502742 -2.2439244 0.7509982 4
20.574303 -4.3957262 1.9628068 17
20.282904 -4.3334684 2.4254591 17
22.211504 -4.7455163 3.1920745 6
6.5271697 -1.4159946 -0.62311912 9
8.653101 -1.8771909 -0.41291553 10
8.4514151 -1.8334376 0 7
8.4979877 -1.843541 0.2018875 28
10.425447 -2.2616813 0.74597573 6
20.404705 -4.4265666 1.947944 17
20.632212 -4.4759216 2.4688993 4
20.636459 -4.4768434 2.9677274 5
7.0363455 -1.5470407 -0.50378126 4
7.2097735 -1.5851713 -0.34425154 5
8.7627039 -1.9266052 0 6
8.2018375 -1.8032908 0.1949707 30
10.325878 -2.2702913 0.49303904 6
10.35284 -2.2762194 0.74123228 9
20.219168 -4.4454722 1.9314094 12
20.609934 -4.5313873 2.4677379 13
20.70125 -4.551465 2.9788613 11
8.784277 -1.9586899 0 6
8.0539885 -1.7958524 0.19158192 27
8.453001 -1.8848231 0.40387833 11
9.2516546 -2.0629044 0.66282606 6
9.253582 -2.063334 0.88451707 3
20.098114 -4.4814129 2.4080362 17
20.575537 -4.5878668 2.9627171 23
5.1184359 -1.1553669 -0.48954055 11
5.9416366 -1.3411851 -0.42593303 4
7.9088316 -1.7852333 -0.18823956 9
8.6870356 -1.9608947 0.20676176 13
8.4110098 -1.8985883 0.40210816 5
9.2559519 -2.0893142 0.66352355 6
12.391082 -2.7969961 1.1851153 4
20.495836 -4.6264548 2.952975 23
8.7646408 -2.0073705 0.20875791 19
8.5101652 -1.9490879 0.40713921 6
20.158251 -4.6168556 1.9293656 12
21.208593 -4.8574162 2.5443974 5
20.50437 -4.6961274 2.9563153 23
8.8739176 -2.0584958 -0.21149679 6
8.7784796 -2.0363567 0.20922214 30
9.6529188 -2.2392018 0.46210763 8
11.633245 -2.6985807 1.114146 4
7.7737265 -1.8290378 0 3
9.038682 -2.1266623 0.21558188 27
12.138102 -2.8559079 0.87195593 10
11.607265 -2.73101 1.112474 4
6.5890589 -1.5697352 -0.47364646 6
6.6018648 -1.5727861 -0.31648782 2
7.7180042 -1.8386879 0 5
8.9296217 -2.127336 0.21312153 19
9.6336317 -2.2950547 0.46182814 37
12.067973 -2.8749967 0.86749154 13
6.5594363 -1.5820479 -0.47183278 9
8.9994516 -2.170547 0.21493198 27
9.6213589 -2.3205426 0.46154866 100
11.864006 -2.861439 0.85340065 10
20.028236 -4.8305416 1.9221201 16
5.5936456 -1.3656524 -0.40263438 5
8.5644484 -2.0909545 0 6
9.2944288 -2.2691748 0.22212733 20
9.6633615 -2.3592472 0.4638778 21
12.084678 -2.9503961 0.86986321 10
19.983719 -4.8788958 1.9191476 16
5.2232962 -1.2916677 -0.50198805 8
5.5372758 -1.3693116 -0.39886752 5
7.5776396 -1.8738726 -0.1812299 3
9.3264751 -2.3063416 0.22305577 43
9.6388636 -2.3835921 0.46303931 16
10.111968 -2.500586 0.72839707 9
20.032946 -4.9539423 1.9252785 16
7.4778957 -1.8741556 -0.539078 4
7.6236711 -1.9106907 -0.36651844 5
7.5077128 -1.8816286 -0.17969799 5
7.919076 -1.9847268 0 5
8.7295828 -2.1878612 0.20894361 52
9.7340364 -2.4396033 0.46797714 43
9.6918488 -2.4290299 0.69868088 9
4.8522906 -1.230522 -0.58539957 7
5.5803566 -1.4151566 -0.53710121 7
7.9076862 -2.0053585 0 5
8.5955238 -2.1797912 0.20587978 10
9.5819464 -2.429944 0.46098965 43
9.6057367 -2.4359775 0.6929608 4
7.6061139 -1.9529179 -0.54912293 54
7.6032662 -1.9521869 -0.18225117 5
7.9171996 -2.0327911 0 4
8.1261597 -2.0864432 0.194785 10
9.2263823 -2.3689322 0.44421959 47
5.5046549 -1.4297522 -0.53059882 7
7.6720796 -1.9927086 -0.55428493 4
7.9048367 -2.0531638 -0.38086614 13
7.5300517 -1.9558189 -0.18062642 5
8.7593584 -2.2751131 0 6
7.9558053 -2.0664022 0.19083917 10
8.6009579 -2.2339709 0.41440621 4
9.9043789 -2.572515 0.71556193 11
7.4933577 -1.9714379 -0.72288513 9
7.8124218 -2.0553808 -0.56488794 5
7.5447769 -1.9849659 -0.36381659 5
7.6244202 -2.0059192 -0.18304034 5
7.7328548 -2.0344477 0 1
8.9567127 -2.3564339 0.21502483 19
8.5610514 -2.2523389 0.41282237 4
9.749609 -2.5650382 0.70495898 2
7.6718054 -2.0384424 0 5
9.3644629 -2.4881911 0.22495905 11
10.281075 -2.7317402 0.99245757 3
5.0507169 -1.359006 -0.61164963 7
5.5640326 -1.4971248 -0.40291342 4
5.799211 -1.5604047 -0.28005958 3
7.578455 -2.0391493 0 3
9.4222717 -2.5352685 0.45502695 43
10.130085 -2.7257211 0.73355907 33
5.4508266 -1.4850439 -0.66066521 9
5.0915351 -1.3871572 -0.36901176 2
5.196733 -1.4158177 -0.25117785 4
7.5835896 -2.066102 0 3
8.974391 -2.4450171 0.21595326 8
9.4373913 -2.5711589 0.45614496 18
9.8615999 -2.6867321 0.71472484 15
9.9947224 -2.723 0.96644777 5
7.4181147 -2.0405035 -0.35878557 5
7.6034665 -2.0914884 -0.18308677 5
7.6498685 -2.1042521 0 2
8.9568224 -2.4637566 0.21567473 13
9.5774784 -2.6344805 0.46322563 27
9.7165012 -2.6727216 0.70467991 24
6.2064619 -1.7270383 -0.45048729 5
7.612638 -2.1183271 -0.18345813 5
7.5954213 -2.1135364 0 3
8.8627901 -2.4662001 0.21358575 11
9.4252663 -2.6227174 0.45623812 17
10.412018 -2.8972952 0.75574166 6
10.137158 -2.8208117 0.98168206 7
6.1049852 -1.7194834 -0.44351166 5
7.6631951 -2.1583569 -0.37126994 6
7.60607 -2.1422675 0 3
8.8607721 -2.4956574 0.21372502 11
9.5265932 -2.6831872 0.46154866 12
9.7537661 -2.7471712 0.70858628 9
10.101412 -2.8450863 0.97908109 5
5.7326612 -1.6308283 -0.55605114 10
6.1158142 -1.7398278 -0.44462776 4
7.6330042 -2.1714382 -0.1842473 2
7.5754275 -2.1550589 0 3
8.8580551 -2.5199409 0.21381786 11
9.4369059 -2.6846125 0.45754245 27
9.5719118 -2.7230191 0.69589061 12
10.082436 -2.8682528 0.97796643 5
4.8983316 -1.4101269 -0.59608543 13
5.4462056 -1.5678483 -0.52874094 10
7.6088524 -2.190429 -0.18382952 3
7.5628543 -2.1771872 0 3
7.5723457 -2.1799195 0.1829475 9
8.9638205 -2.5804958 0.43499607 15
10.373816 -2.9864042 1.0071344 5
4.80268 -1.3989441 -0.46668911 11
7.5617375 -2.2026136 0 3
7.5558605 -2.2009017 0.18271539 9
9.5297117 -2.7758534 0.69407696 23
10.461889 -3.0473816 1.0166094 5
4.8510251 -1.4268142 -0.23580533 3
7.7246308 -2.2720172 -0.18693976 16
7.6019945 -2.2359469 0 3
7.546237 -2.219547 0.18262255 9
9.2363052 -2.7166407 0.44897112 21
9.5109282 -2.7974145 0.69323987 14
10.430949 -3.068017 1.01438 5
4.8899403 -1.4540381 -0.3567346 1
4.8544302 -1.4434792 -0.236178 4
4.9043927 -1.4583356 -0.11879285 7
7.5664496 -2.2499061 0.18327245 2
9.4273605 -2.8032534 0.45866048 21
9.8601999 -2.9319596 0.71932876 9
10.003784 -2.9746547 0.97369331 7
6.1412425 -1.8447978 -0.44839463 4
6.4059458 -1.9243134 -0.31192264 4
4.8715777 -1.463397 -0.11809654 3
8.2689734 -2.4839575 0 9
9.3640079 -2.8129001 0.4559586 33
9.3207779 -2.7999141 0.68054414 21
9.9668312 -2.9939852 0.97090662 5
6.0121431 -1.8254826 -0.29300979 3
8.351512 -2.5357912 0 6
9.0134354 -2.7367728 0.43928176 22
9.0947952 -2.7614763 0.66463971 57
9.3119545 -2.8274128 0.90792584 2
7.9590654 -2.4409273 -0.38822633 5
8.8047543 -2.7002876 0.21381786 19
9.3514729 -2.8679578 0.45614496 18
8.9611578 -2.7482541 0.65543187 12
9.9627485 -3.0554271 0.97220707 3
8.8802547 -2.753994 -0.2158604 26
8.7489309 -2.7132671 0 21
8.3340721 -2.5846086 0.20258383 7
8.3081865 -2.5765808 0.4056485 5
10.490294 -3.2533081 0.76801878 9
6.3351417 -1.9828845 -0.15411969 9
8.7895145 -2.7510977 0 14
9.2898121 -2.9076893 0.68068367 8
5.9518533 -1.8834667 -0.43653601 4
8.7879934 -2.7809646 -0.21400355 6
8.7979898 -2.784128 0 22
8.852807 -2.801475 0.21558188 19
9.045577 -2.8624771 0.44244942 11
9.2768259 -2.9356561 0.68040466 6
5.9408693 -1.8982584 -0.43611747 4
7.6374354 -2.4403543 -0.1861506 5
8.8130426 -2.8159904 0 12
8.924943 -2.8517458 0.21753159 63
9.0375481 -2.8877258 0.44244942 12
5.9260511 -1.9117782 -0.43541989 3
4.9399042 -1.5936415 -0.12051046 4
8.7994337 -2.838748 0 10
8.9454889 -2.8858659 0.21822791 20
9.0313511 -2.9135656 0.44254258 15
9.9533348 -3.2110031 0.73132688 42
6.0186205 -1.962539 -0.59060699 5
6.1856999 -2.0170197 -0.15105587 4
8.6992025 -2.8366172 0 6
8.9078636 -2.9046571 0.21753159 14
9.5102997 -3.1010983 0.46648651 25
9.4651976 -3.0863912 0.69616961 14
9.5135479 -3.1021571 0.93356401 3
8.3617592 -2.7540591 -0.20439428 10
8.4210014 -2.7735713 0 21
9.0112534 -2.967979 0.22027047 51
8.7932682 -2.8961825 0.43173525 2
9.6530762 -3.1793718 0.71067899 9
10.092528 -3.3241115 0.99134284 3
8.6680403 -2.8801129 0 8
8.1894407 -2.7210896 0.20035559 7
9.5311193 -3.1668866 0.70230818 18
8.7561569 -2.9382682 0 10
8.2826128 -2.7793629 0.4074187 2
9.36658 -3.1431055 0.69086808 23
8.7449884 -2.9651194 0 8
8.8070135 -2.98615 0.21590683 16
9.1157932 -3.0908463 0.44887796 5
9.1412601 -3.0994811 0.67496365 17
9.5746889 -3.2464418 0.94322479 3
7.580791 -2.5925286 -0.18601131 5
8.8086252 -3.0124314 0.21613893 16
9.4710283 -3.2389643 0.69993645 9
7.5841017 -2.6203024 0 5
8.7367535 -3.018543 0.21460703 16
9.0185308 -3.1158969 0.44496492 21
13.779172 -4.7606955 1.0194211 7
7.6546493 -2.667129 0 11
9.2442808 -3.2210085 0.22728013 12
8.8933744 -3.0987413 0.4391886 8
9.3862743 -3.2704835 0.69505352 6
4.839067 -1.7022059 -0.47857931 5
6.2979183 -2.2153761 -0.1550017 1
8.3240194 -2.9280844 0 6
8.5103941 -2.993644 0.20945422 11
9.0104113 -3.1695316 0.44543076 26
4.8396244 -1.7185553 -0.47913668 8
7.6761985 -2.7258253 -0.18912157 5
8.3209496 -2.9547772 0 14
9.2419481 -3.2818244 0.45735615 12
9.1880913 -3.2627001 0.68179977 8
4.8304524 -1.7324064 -0.47876507 8
8.1440754 -2.9208128 0 9
9.1262808 -3.2730739 0.45213878 5
9.1909418 -3.2962639 0.68277633 10
4.8333912 -1.7477552 -0.47950819 5
8.1965866 -2.9638872 0 6
8.2921543 -2.9984446 0.20471923 7
8.9383707 -3.2321165 0.66463971 25
10.923352 -3.9498861 1.0836774 3
4.8448358 -1.7681655 -0.36064097 4
8.3925447 -3.062933 0 6
8.292614 -3.0264626 0.20495135 7
8.3627901 -3.0520737 0.41515154 6
9.1180372 -3.327708 0.67873049 10
10.894749 -3.9761345 1.0820054 3
4.8804421 -1.7985548 -0.36371025 4
4.8926725 -1.8030618 -0.24316551 3
4.9191833 -1.8128319 -0.12171742 4
9.1786757 -3.3825526 0.68403202 8
10.833622 -3.9924381 1.077175 6
7.4337234 -2.7631001 -0.55456394 1
9.0018311 -3.3459628 -0.44785309 3
7.7328701 -2.8742924 -0.1915355 5
8.659174 -3.2185977 0 14
8.435688 -3.1355283 0.20894361 16
9.1591339 -3.4044321 0.45567912 21
9.1561041 -3.4033055 0.6830554 10
10.719769 -3.9845171 1.0669569 3
4.946877 -1.8544835 -0.49288464 5
6.4426894 -2.4152331 -0.32086667 3
8.3711147 -3.1381605 0 30
9.0522213 -3.3934937 0.2244484 23
9.2206783 -3.4566448 0.45921949 30
9.1596413 -3.433763 0.68403202 10
6.1039891 -2.3077228 -0.60881382 10
6.454607 -2.44028 -0.32179835 1
8.3005829 -3.1381845 0 13
9.4427118 -3.5699871 0.47077218 16
8.7432919 -3.3352418 -0.43639356 7
8.8214254 -3.365047 -0.21920276 9
8.9359226 -3.4087231 0 15
9.0530767 -3.4534135 0.22495905 23
9.4638119 -3.6100934 0.47235599 10
9.5894203 -3.6580086 0.95753014 1
8.8787899 -3.4171407 -0.44366059 7
8.8244648 -3.3962328 -0.21952771 8
8.8847055 -3.4194176 0 15
9.0148001 -3.4694865 0.22426273 23
9.3561039 -3.6008425 0.4675113 11
9.5729494 -3.684299 0.95697278 5
8.8739195 -3.4473131 0 12
8.9404888 -3.4731736 0.2226844 11
8.5123215 -3.3068409 0.42586571 2
8.8581467 -3.4696863 -0.22087395 6
8.8530846 -3.4677033 0 10
8.7222404 -3.4164524 0.21748517 17
8.3392286 -3.2664287 0.62627363 8
9.5509176 -3.7410407 0.95697278 6
8.9432669 -3.5318649 -0.22324143 16
8.8098831 -3.4791892 0 7
8.5843458 -3.3901205 0.21428208 11
8.4175348 -3.3242435 0.42204589 4
9.178112 -3.6246095 0.69003099 17
8.3569088 -3.3003011 0.8382569 2
6.2281294 -2.4797328 -0.4687635 2
8.8558769 -3.5259719 0 8
9.3065805 -3.7054198 0.46713868 7
8.2467108 -3.2834318 0.62069315 4
8.1663504 -3.2514365 0.82005006 3
8.7556772 -3.5179849 0 7
9.1984968 -3.6959071 0.46229398 10
9.0900145 -3.6818347 0.22769791 21
9.4937811 -3.8453774 0.71625948 24
9.5441055 -3.8657608 0.96068853 10
8.4446678 -3.4496441 0.42539987 6
9.2939386 -3.796571 0.70202911 9
10.220208 -4.174952 1.0299859 5
6.5861259 -2.711916 -0.49806121 4
8.5717058 -3.5295022 -0.43229425 4
11.379054 -4.6854615 0.86051583 5
9.8273487 -4.0465279 0.99152863 6
9.4043999 -3.9050484 0.47487149 16
8.6578226 -3.6234214 0.21790296 17
9.4063587 -3.9366944 0.47552365 25
9.3862829 -3.928292 0.71151608 60
9.8149014 -4.1076751 0.99264336 5
8.6737452 -3.6585822 -0.43900228 7
9.5909195 -4.0454459 0.24167082 31
8.8062811 -3.7144859 0.44571027 37
9.3495398 -3.9436321 0.7095629 29
5.8819408 -2.5027957 -0.14840984 4
8.5832853 -3.6522317 0 7
8.6619253 -3.6856935 0.21855286 11
8.7908897 -3.7405686 0.44552392 22
9.5922861 -4.0815668 0.72895515 15
9.5851269 -4.0785208 0.97183555 8
8.5969486 -3.6864331 0 7
8.7581825 -3.7555711 0.22124532 20
8.2277336 -3.5281107 0.41748074 4
9.5716829 -4.1044059 0.7282576 15
9.537097 -4.0895753 0.96811986 10
8.6467123 -3.7363927 -0.21869214 4
8.650383 -3.7379789 0.21878497 54
8.2708406 -3.573972 0.63004047 6
9.5347786 -4.1201415 0.96904874 11
8.6404305 -3.7659352 0.21883139 20
8.7102957 -3.796386 0.44310158 20
9.6970367 -4.2264571 0.986884 7
7.3930478 -3.2483995 -0.37658048 5
8.5797939 -3.7698386 0.21757801 28
8.6733866 -3.8109622 0.44179726 8
8.8918123 -3.906935 0.67914903 4
9.7446165 -4.2816453 0.99301487 6
8.7307968 -3.8634884 0.2216631 57
8.6487646 -3.827188 0.44105193 8
9.0577745 -4.0081801 0.92408907 2
8.6492329 -3.8599343 0.21989907 34
8.6640644 -3.8665531 0.44244942 10
10.408695 -4.6451373 0.79703748 9
9.7270689 -4.3409452 0.99375802 1
8.7708559 -3.9454591 0.22328788 28
8.5487022 -3.8455265 0.43713894 12
9.103014 -4.0948763 0.69798326 6
4.6399612 -2.1038034 0.11828222 5
9.5450926 -4.3278375 0.73286152 6
8.8716583 -4.0524011 0.22644453 11
9.2751074 -4.2366886 0.47552365 20
11.977461 -5.4710712 0.92078549 6
9.453804 -4.3502631 0.48530617 31
8.4720087 -3.9307783 -0.21683525 3
8.5753927 -3.9787455 0.21948129 51
9.4690886 -4.3933954 0.48679686 27
9.6137419 -4.4605107 0.7410928 24
9.461875 -4.390049 0.97313601 11
8.7352314 -4.0807319 0.22384492 23
9.191474 -4.2938695 0.47310132 27
9.4483843 -4.413887 0.72923416 27
9.5369511 -4.4552617 0.98205364 8
8.937624 -4.2095375 0.2293691 27
8.9357491 -4.2086544 0.46061698 8
6.8395104 -3.2432506 -0.52931213 10
4.5219202 -2.1442647 -0.23338298 52
8.6470671 -4.1003823 0 7
6.918066 -3.3056784 -0.53614825 4
8.3749266 -4.0018144 -0.43285325 6
8.9669037 -4.2846804 0 3
9.1644697 -4.3790836 0.47366032 10
9.5391188 -4.5581031 0.73927909 9
7.0466433 -3.3928351 -0.54689074 6
9.1192808 -4.3907733 0.23498611 12
8.8814287 -4.2762523 0.45968527 5
9.5165644 -4.5820584 0.73858154 9
7.0084186 -3.3985715 -0.54465854 9
9.5819426 -4.6465425 0.24724141 13
9.3799782 -4.5486045 0.48614469 8
10.738822 -5.2075448 0.83456647 9
7.8166661 -3.8208904 -0.40574166 4
4.7495184 -2.3216279 0.12273869 5
10.715239 -5.2377515 0.8340084 9
10.807671 -5.2829337 1.1223205 1
7.0136056 -3.4541633 -0.72938752 4
7.0054259 -3.450135 -0.54605371 4
4.7835436 -2.3558698 -0.24866235 4
10.187211 -5.0171471 0.52956045 12
10.71218 -5.2756915 0.83498496 9
10.820532 -5.3290544 1.125293 1
4.757565 -2.360641 -0.37138349 5
4.8628259 -2.4128699 -0.12603463 4
9.174675 -4.5523524 0 72
9.2169809 -4.5733442 0.23888552 18
8.928483 -4.4301958 0.46480948 2
8.7502031 -4.3417354 0.6830554 6
4.7589231 -2.3758233 -0.37194151 4
8.2151413 -4.1012902 0 8
4.4451065 -2.2366278 -0.58191502 12
5.129693 -2.5810885 -0.13332282 7
7.6787467 -3.8636866 0 3
8.1892891 -4.1205745 0.212843 2
10.342304 -5.2038989 0.80959368 9
4.874754 -2.4698954 -0.63906121 21
5.5192628 -2.7964489 -0.28853777 4
8.6628876 -4.3892317 -0.22546968 12
8.1371374 -4.1228495 0 6
9.8810205 -5.0064244 0.77457583 9
5.4557786 -2.7846572 -0.2856496 4
5.5492811 -2.8323815 -0.14464968 4
6.3702106 -3.2513881 0 5
9.0022125 -4.5947752 0.47133115 11
9.8305826 -5.0175796 0.77178562 11
7.2573409 -3.7329695 -0.38058662 5
5.4870148 -2.8223641 -0.14325704 10
9.3341665 -4.8012295 0.48949867 2
8.9649391 -4.6113091 0.70495898 2
4.4909697 -2.3259089 -0.59143937 35
4.5550723 -2.3591082 -0.47857931 8
7.343389 -3.8031995 -0.57828116 5
5.4684587 -2.8321583 -0.1429785 12
8.8762083 -4.5970588 0 28
9.2182598 -4.77421 0.24102092 12
8.59692 -4.4524136 0.45148662 3
4.6229663 -2.4096413 -0.36454734 14
5.4769826 -2.8547826 -0.1433963 4
8.8127108 -4.593473 0 43
8.6401224 -4.5035143 0.22621243 14
10.548077 -5.4980025 0.8317762 2
4.5255423 -2.3769703 -0.47690725 11
7.2701397 -3.8185272 -0.57423532 6
5.0750141 -2.6655719 -0.1330907 4
8.8212547 -4.6332259 0 48
10.484828 -5.5069919 0.82814884 7
5.1213989 -2.7104969 -0.13452978 1
6.2594066 -3.3127866 0 6
9.0446234 -4.7868605 0.23758571 18
8.9842672 -4.7549171 0.474033 41
10.269976 -5.4353776 0.81252342 7
5.0595775 -2.6947577 -0.1330907 4
8.7202816 -4.6444683 0 7
8.9349985 -4.7588272 0.23503253 69
8.5415373 -4.5492673 0.45130029 5
10.255711 -5.4622455 0.81252342 7
4.4656982 -2.3954899 -0.35436291 4
4.6440349 -2.4911532 0 4
9.2238979 -4.9478836 0.24301703 12
10.250008 -5.4983091 0.81336051 7
7.2713156 -3.9266667 -0.57786262 5
8.4998102 -4.5900803 0 31
8.9144793 -4.8140106 0.23521823 18
8.5995722 -4.6439538 0.45577228 18
8.7354097 -4.717309 0.69421643 6
7.3893318 -4.0187616 -0.58818656 5
8.4316874 -4.5856571 0 9
8.780715 -4.7754793 0.23206154 12
8.6033058 -4.6789937 0.45670399 11
8.6758051 -4.7184229 0.69058907 8
7.4585819 -4.0834537 -0.59460419 5
7.7841077 -4.2616739 -0.41384721 3
8.481473 -4.6434703 -0.22449483 14
4.6611547 -2.5519075 0 6
8.5271196 -4.6684613 0.45334995 10
8.6468449 -4.7340088 0.6893335 10
7.5912271 -4.1853976 -0.40425101 4
4.6920943 -2.5869706 0 4
8.4501476 -4.6589608 0.22403061 20
8.4012604 -4.6320066 0.44738725 13
8.672945 -4.7817988 0.69254225 10
4.4824929 -2.4887788 -0.59956992 15
7.7569346 -4.3068213 -0.41375402 6
4.434907 -2.4623582 -0.11777159 4
8.4298182 -4.6804209 0 31
8.438036 -4.6849833 0.22407703 17
8.5534134 -4.7490435 0.45623812 10
8.6342993 -4.7939529 0.69058907 2
4.5600476 -2.5495694 -0.61095273 11
8.3897085 -4.6907716 0 24
8.3001881 -4.6407199 0.22078109 14
8.4364023 -4.7168784 0.45074129 12
4.8806643 -2.7467468 -0.13002688 4
8.5107841 -4.7897105 0 16
