# .PCD v0.7 - Point Cloud Data file format
VERSION 0.7
FIELDS x y z intensity
SIZE 4 4 4 4
TYPE F F F F
COUNT 1 1 1 1
WIDTH 1381
HEIGHT 1
VIEWPOINT 0 0 0 1 0 0 0
POINTS 1381
DATA ascii
-3.1562312 4.0763302 -0.36050147 4
-9.762825 12.608868 -0.74365789 14
-9.5529108 12.33776 -0.36227411 3
-2.9525177 3.8132308 -1.5048633 20
-3.2502646 4.1977763 -1.2579315 15
-3.2145665 4.1516714 -1.11607 18
-3.3498862 4.3264394 -1.0309269 9
-3.1702859 4.1196742 -0.85405093 4
-3.1813505 4.1340523 -0.6100235 7
-3.1879663 4.1426492 -0.48768273 8
-8.0428238 10.451364 -0.92218053 4
-9.5998764 12.474699 -0.73406172 14
-2.995955 3.8931372 -1.2860107 39
-3.1428461 4.0840168 -1.221042 16
-3.1807594 4.1332841 -1.1085852 15
-3.2339518 4.2024059 -0.99908078 5
-3.2266622 4.2157211 -0.87220842 7
-3.2862477 4.293571 -0.75988513 24
-3.176554 4.1502533 -0.61118501 5
-4.1526346 5.4255295 -0.63742453 9
-9.4166183 12.303066 -0.72250903 13
-51.623226 67.447136 3.9608963 63
-2.9369781 3.8372409 -1.5078421 14
-2.95753 3.8640926 -1.2738547 22
-3.1699946 4.1416831 -1.2357978 14
-3.2246232 4.213057 -1.1277131 16
-3.3017809 4.3138657 -1.0235208 5
-3.1960177 4.2029781 -0.74207103 3
-3.1839397 4.1870947 -0.61513418 4
-4.1596746 5.4702516 -0.64114022 9
-9.153903 12.037997 -1.0575081 27
-4.0982285 5.3894453 -0.31574249 4
-2.9341524 3.8586075 -1.5126081 15
-3.0812249 4.0520177 -1.3326091 54
-3.1970174 4.2042928 -1.2514758 14
-3.2267642 4.2434115 -1.1331189 21
-3.2810729 4.3148313 -1.021299 6
-3.2253923 4.2662802 -0.87869322 9
-3.1422861 4.156354 -0.6093266 7
-4.1828136 5.5326772 -0.64708531 9
-7.8424554 10.373345 -0.90934539 4
-9.8362188 13.01053 -0.76061428 15
-9.2763176 12.269938 -0.35712132 9
-2.9486971 3.9002905 -1.5257145 12
-2.9518678 3.9044845 -1.4035454 64
-3.1807463 4.2072263 -1.3807268 17
-3.1582716 4.1774979 -1.2408701 13
-3.1972058 4.2289972 -1.1268815 11
-3.2950881 4.3584676 -1.0294458 8
-3.7648549 5.0088496 -1.0294653 7
-5.4858236 7.2984657 -1.2831761 6
-3.1461837 4.1857553 -0.61234653 5
-4.1637583 5.5395598 -0.64652795 7
-4.0781507 5.4256654 -0.47462305 4
-4.1148806 5.4745317 -0.31937602 3
-9.2960796 12.367719 -0.35921028 3
-2.9343534 3.9039311 -1.5239272 12
-3.0091059 4.0033841 -1.4360707 28
-3.1278851 4.1614103 -1.2334923 14
-3.2159452 4.2785678 -1.1376928 29
-3.232126 4.3000951 -1.0135226 5
-3.3192811 4.4450569 -0.91144162 3
-3.1378891 4.2021437 -0.73706084 4
-3.1151888 4.1717443 -0.60886198 5
-4.134419 5.5366592 -0.64467013 9
-4.1040583 5.4960012 -0.47964552 4
-8.9340467 11.964142 -0.69632912 13
-9.7955236 13.1178 -0.38010001 3
-49.679943 66.529526 3.8721077 63
-2.9277847 3.9207797 -1.5269061 15
-3.0344727 4.0636525 -1.4542627 19
-3.1392474 4.2039628 -1.2431756 16
-3.1872699 4.2682729 -1.1322871 31
-3.1950805 4.2787323 -1.0061166 9
-3.1672964 4.2678785 -0.87318116 6
-3.117146 4.2003021 -0.73511237 4
-3.1075337 4.1873493 -0.60979122 7
-4.1239076 5.5568962 -0.64559901 9
-8.8341665 11.903892 -1.0365812 7
-8.8877954 11.976155 -0.6954906 13
-8.8307133 11.899238 -0.34403041 3
-49.319233 66.456841 3.8593442 63
-2.8899705 3.8941867 -1.5132039 14
-3.0258403 4.0772691 -1.4559165 18
-3.2181191 4.3363614 -1.4136496 15
-3.4190254 4.6070795 -1.3593776 16
-3.0568426 4.1190443 -1.090289 14
-3.1659739 4.2660966 -1.0009322 5
-3.1393914 4.256609 -0.86896604 5
-3.1093726 4.2159071 -0.73622578 4
-7.1134157 9.6448717 -1.4014745 11
-8.8688259 12.024981 -0.69679499 13
-8.9176111 12.091127 -0.34881186 3
-2.8806703 3.9058166 -1.5143952 19
-3.004601 4.0738502 -1.4515064 18
-3.3175511 4.4981704 -1.3243326 52
-3.1676931 4.2949824 -1.1343663 67
-3.3737891 4.5744219 -1.0709198 6
-3.0811906 4.2022142 -0.73232889 4
-4.3108492 5.8792572 -0.6801548 2
-9.0415154 12.331073 -1.0692272 19
-8.8056746 12.009426 -0.69446582 13
-2.9852543 4.0713735 -1.4476475 20
-3.1862252 4.3454633 -1.4106106 16
-3.3858838 4.6177635 -1.2171152 40
-3.6236513 4.9420371 -1.1546085 9
-7.5237312 10.321391 -1.1916178 2
-9.0528822 12.419149 -1.0746683 19
-8.7721052 12.033967 -0.69446582 9
-2.9410322 4.0346394 -1.4316605 20
-3.2139683 4.4090657 -1.4283382 15
-3.4287944 4.703774 -1.3792057 9
-3.6311064 4.9813142 -1.3102597 45
-3.6927629 5.0994792 -0.88486266 38
-3.9018791 5.3882561 -0.77797741 10
-7.3884859 10.203046 -1.1752689 5
-8.9611616 12.374815 -1.0683901 19
-8.6815243 11.988653 -0.69027328 9
-31.411074 43.376766 -1.2434024 29
-2.8375168 3.9184368 -1.5096294 16
-3.0072725 4.1528587 -1.4702497 20
-3.2103131 4.4332457 -1.4328967 15
-3.3957365 4.6893039 -1.3718277 9
-3.5121729 4.8500953 -1.2728355 25
-3.3660171 4.6482635 -1.0812883 5
-3.4279919 4.7617807 -0.96396863 10
-3.8127353 5.2962236 -0.9171508 20
-3.8345912 5.3265829 -0.76752388 10
-7.3634567 10.228486 -1.1758263 11
-8.9592094 12.445127 -1.0722965 19
-8.7297201 12.126346 -0.69679499 9
-3.0012805 4.1690416 -1.4730061 16
-3.1922691 4.4343414 -1.4303641 16
-3.4574687 4.8027272 -1.2578658 20
-3.3702486 4.6815705 -1.0868429 9
-3.3966248 4.7478538 -0.95910507 7
-3.8350329 5.3606677 -0.92633623 20
-3.847666 5.3783259 -0.7733314 5
-7.2867322 10.185505 -1.1683949 5
-8.7144556 12.181198 -1.0473237 30
-8.6216345 12.051452 -0.69101864 9
-2.8848863 4.0325379 -1.5471615 19
-2.9877796 4.1763639 -1.4724549 18
-48.074585 67.199387 7.7085447 63
-3.0935426 4.3242006 -1.3918699 19
-3.4003785 4.7531009 -1.3847392 12
-3.4397898 4.8081903 -1.2566184 40
-3.4078043 4.7634807 -1.1035066 8
-3.7808025 5.3142066 -0.91659415 22
-6.5593376 9.2196493 -1.3231888 7
-8.6142988 12.108055 -1.0390924 42
-11.528303 16.203911 -0.92738295 5
-2.8876016 4.0587444 -1.5543106 16
-47.590302 66.8918 5.7405396 63
-2.9679205 4.171639 -1.4680446 16
-3.0676308 4.3117895 -1.3852854 22
-3.4533584 4.8539591 -1.4114839 10
-3.453275 4.8538418 -1.2661823 30
-3.5103991 4.934134 -1.1409073 13
-3.4295907 4.8527575 -0.97628981 22
-3.6200619 5.1222677 -0.88152248 22
-6.5933943 9.3294353 -1.3359654 7
-7.3003516 10.329756 -1.1800992 2
-8.5635481 12.117138 -1.0375578 18
-8.8806944 12.565889 -0.71757114 3
-45.85535 64.883804 0 63
-2.8627141 4.0506458 -1.5477573 19
-2.9326077 4.1495433 -1.4570191 24
-3.2025845 4.5315514 -1.4526502 22
-3.4302285 4.8536601 -1.4082561 12
-3.3668766 4.764019 -1.2399855 20
-3.4551778 4.8889623 -1.1279466 30
-3.4056542 4.8493505 -0.83281189 9
-3.4112797 4.8573604 -0.69411659 14
-3.378475 4.8106499 -0.54843402 7
-8.5470533 12.170248 -1.0399295 39
-8.664257 12.337135 -0.70303714 3
-2.8572674 4.0684962 -1.5513318 18
-2.9600601 4.2148643 -1.4768651 18
-3.0912726 4.4016991 -1.4080781 54
-3.4102209 4.8558531 -1.4059505 10
-3.3617222 4.7867951 -1.2433121 11
-3.3966043 4.8364644 -1.1135048 39
-3.7606437 5.3847466 -1.0790743 16
-3.8102596 5.45579 -0.93524331 5
-7.139926 10.223434 -1.1633787 5
-8.488884 12.154963 -1.0367208 13
-8.7371635 12.510468 -0.71160853 3
-2.8695617 4.1088343 -1.5638425 19
-2.9203937 4.1816192 -1.4625319 20
-3.0897071 4.4240541 -1.4126365 39
-3.323951 4.7594604 -1.3755167 13
-3.3704596 4.8260541 -1.2512126 20
-3.56286 5.1015463 -1.1723832 12
-3.6458426 5.2554588 -1.0508653 26
-6.366993 9.1779795 -1.5698727 6
-6.7336569 9.7065229 -1.3814965 10
-3.7479837 5.4026942 -0.6134584 7
-8.5416355 12.312714 -1.0478817 19
-8.7869844 12.666382 -0.35791048 6
-46.375851 66.850494 3.7942204 63
-2.879493 4.1507707 -1.5763533 15
-2.9039557 4.1860337 -1.460878 29
-3.1662266 4.5640955 -1.4541698 22
-3.2557383 4.6931257 -1.3533831 18
-3.3909652 4.8880548 -1.264519 15
-3.5087271 5.0578074 -1.1597928 18
-3.5585454 5.162261 -1.0301138 20
-6.9573689 10.092819 -1.433532 8
-3.8313937 5.558073 -0.62980735 9
-8.6522675 12.551551 -1.0660185 46
-8.8896217 12.895872 -0.73042816 38
-8.6994286 12.619967 -0.35586792 6
-2.8660803 4.1577253 -1.5757575 20
-2.9078889 4.2183757 -1.4691472 24
-3.1296091 4.5400181 -1.4435333 24
-3.1943028 4.6338668 -1.333555 20
-3.3386953 4.8433323 -1.250381 15
-3.4725089 5.0374513 -1.152757 21
-3.4936905 5.0966802 -1.0151987 22
-3.8341715 5.5933819 -0.95305753 5
-3.8714783 5.6478057 -0.80074298 7
-3.7042394 5.4038339 -0.611229 10
-8.6284037 12.587323 -1.0671345 22
-8.6366949 12.599419 -0.71235383 10
-8.6347084 12.59652 -0.35456812 9
-2.8098481 4.0990744 -1.5507361 28
-2.9196625 4.259274 -1.480724 27
-3.0597348 4.4636149 -1.4166886 30
-3.1887631 4.6518445 -1.3363217 35
-3.3293228 4.8568964 -1.2516285 11
-3.4204159 4.9897852 -1.1397964 31
-3.5476379 5.2104025 -1.0356259 21
-3.6883962 5.4171333 -0.92104769 7
-3.6816416 5.4072132 -0.61030006 10
-7.5962038 11.156516 -0.9438051 9
-8.6544161 12.710709 -0.71710533 10
-11.142789 16.365372 -0.45966661 10
-2.8582048 4.1978345 -1.5846937 16
-2.9289899 4.3017964 -1.4923006 24
-2.9553177 4.3404641 -1.3746489 43
-3.1193695 4.5814061 -1.3132657 15
-3.3547864 4.9271622 -1.267014 15
-3.5308251 5.1857095 -1.182011 12
-3.6549132 5.4023471 -1.0716166 23
-3.6046081 5.3279905 -0.90406853 23
-3.5753231 5.2847042 -0.7461521 12
-7.5552397 11.16744 -0.94282854 9
-8.9122047 13.173178 -0.74170142 14
-11.104261 16.413269 -0.46008441 5
-2.8489451 4.211041 -1.586481 15
-2.8548069 4.2197056 -1.460878 29
-2.9467618 4.3556242 -1.3766749 100
-3.0861323 4.5616288 -1.3049656 7
-3.205317 4.7377963 -1.2158676 24
-3.4922943 5.1619787 -1.1742347 18
-3.7411337 5.5631981 -1.1014469 18
-3.8859119 5.7784886 -0.97866535 5
-6.8229141 10.145915 -1.4298152 8
-7.3075409 10.866571 -1.2217149 11
-8.2153902 12.216576 -0.68654662 6
-2.8265212 4.2031369 -1.5805235 18
-2.8483772 4.2356377 -1.4636345 29
-2.9410658 4.3734689 -1.3797139 22
-2.8398921 4.2230201 -1.205825 9
-3.3219852 4.9399095 -1.2653507 18
-3.4910276 5.1912813 -1.1786783 18
-3.5469885 5.3084407 -1.0489198 12
-3.9512753 5.9134984 -0.99954128 9
-5.8392549 8.7390585 -1.2291068 7
-7.4963408 11.219061 -0.94352609 7
-8.6275225 12.911993 -0.724186 10
-11.189507 16.746273 -0.46760473 10
-2.8066139 4.2003922 -1.5763533 19
-2.8721135 4.2984195 -1.4823778 27
-2.9957972 4.4835248 -1.4116236 15
-3.0781903 4.6068349 -1.3128046 21
-3.2192788 4.8179884 -1.2316689 19
-3.3937156 5.079052 -1.1509055 25
-3.5237451 5.3096924 -1.0469743 8
-3.7399306 5.635448 -0.95055234 35
-6.6553597 10.02851 -1.4075143 11
-7.4345779 11.202662 -0.94017774 9
-8.4289389 12.700995 -0.71086317 6
-11.13352 16.776346 -0.46746546 10
-2.7986815 4.2171431 -1.5793319 19
-2.8309543 4.2657728 -1.4680446 37
-2.9463904 4.4397159 -1.394909 22
-2.9722311 4.4786534 -1.2736095 21
-3.1662643 4.771029 -1.2171152 10
-3.3505719 5.0487494 -1.1416479 33
-3.2372334 4.9076571 -0.96591407 4
-3.558418 5.3945742 -0.90824378 15
-6.6349874 10.058663 -1.4091403 11
-7.2236857 10.951133 -1.2239442 11
-7.3867879 11.198397 -0.93808508 6
-10.707961 16.233305 -0.90688622 5
-2.7942536 4.2360983 -1.5835023 18
-2.802094 4.2479844 -1.4592242 37
-2.9552886 4.4802279 -1.4050391 13
-2.9307806 4.4430737 -1.2611593 10
-3.1647787 4.7978153 -1.2216892 11
-3.3689268 5.107305 -1.152757 18
-3.3836622 5.1609449 -1.0139017 12
-3.3185539 5.0616384 -0.85062611 3
-5.6538506 8.623559 -1.2058767 7
-7.3852382 11.264365 -1.2566422 12
-7.3445454 11.202298 -0.93668991 9
-10.804984 16.480347 -0.91899794 5
-2.7928801 4.2598519 -1.5894598 17
-2.8207884 4.3024192 -1.4752113 72
-3.0244489 4.6130533 -1.4440397 15
-2.9140923 4.4447312 -1.2593149 10
-3.2125063 4.8998885 -1.2453911 22
-3.4634902 5.2827029 -1.1901578 13
-3.425266 5.2563529 -1.0307623 5
-3.3400896 5.1256428 -0.85981148 1
-3.9877839 6.1195831 -0.85417229 5
-3.7399347 5.7392378 -0.63909656 9
-7.3339314 11.254521 -0.93934065 6
-8.6799984 13.320173 -0.74142188 3
-2.7434499 4.2100501 -1.5680128 19
-2.8549464 4.3811507 -1.4994673 45
-3.0073307 4.6149969 -1.4420137 20
-2.9027321 4.4544816 -1.2597759 8
-3.2767792 5.0284877 -1.2757462 18
-3.3392763 5.1243949 -1.1523868 19
-3.3453031 5.1670938 -1.0113078 8
-3.2839663 5.0723538 -0.84923434 5
-6.415935 9.909936 -1.3805673 10
-7.3159132 11.300025 -1.2558991 18
-7.3156886 11.299679 -0.94129384 7
-7.28759 11.256278 -0.62533599 8
-2.7485862 4.2454157 -1.5781405 14
-2.9098494 4.4945002 -1.5353001 23
-2.9463079 4.5508132 -1.419221 18
-2.9212332 4.5120831 -1.2736095 21
-3.2522776 5.0234084 -1.2720039 12
-3.2877412 5.0781846 -1.1397964 33
-3.229789 5.0231977 -0.98115349 10
-3.2680132 5.0826464 -0.84923434 5
-7.2739115 11.312904 -1.2547843 21
-7.3492079 11.43001 -0.95022267 9
-7.2554293 11.28416 -0.62561548 8
-2.7558851 4.2861485 -1.5900555 16
-2.8925948 4.4987688 -1.5336463 30
-2.9424591 4.5763216 -1.4242861 18
-3.168066 4.9272013 -1.387967 18
-3.1941576 4.9677811 -1.2553709 13
-3.2823994 5.105021 -1.1434994 19
-3.2644627 5.106461 -0.99574429 10
-3.2536297 5.0895157 -0.84895599 7
-6.7054162 10.488999 -1.455833 17
-7.0640764 11.050036 -1.2235727 11
-7.3557973 11.506364 -0.95496613 9
-11.020116 17.238302 -0.95412183 5
-25.780205 40.326889 -1.1112401 23
-2.7456834 4.2949567 -1.5906512 16
-2.9004827 4.5371027 -1.5441206 18
-3.0055022 4.7013803 -1.4607543 18
-3.2253873 5.0453372 -1.4188619 17
-3.1821954 4.9777741 -1.2557868 18
-3.2616138 5.102005 -1.1409073 42
-3.2438407 5.1055622 -0.99379879 10
-3.2500262 5.1152978 -0.85173947 5
-7.112865 11.195117 -1.5510765 9
-7.4454026 11.718506 -1.2952852 6
-7.3097301 11.504967 -0.95315248 9
-8.0781574 12.714414 -0.70247817 3
-2.7367511 4.3074412 -1.5924385 16
-2.9104838 4.5808835 -1.5562487 14
-3.005851 4.7309842 -1.4673388 18
-3.2425957 5.1036024 -1.4326954 15
-3.1672342 4.9849892 -1.2553709 13
-3.3506458 5.2736654 -1.1771971 31
-3.161438 5.0105767 -0.97337162 11
-3.8743854 6.1405301 -1.0204172 9
-6.125772 9.7087631 -1.3424698 10
-7.2119665 11.430277 -0.63027382 8
-2.7221859 4.314404 -1.5918428 17
-2.8929996 4.5851274 -1.5545948 16
-3.0147185 4.7780404 -1.4789884 16
-3.2795072 5.1977053 -1.4562125 16
-3.1505129 4.9932613 -1.2549551 13
-3.129549 4.9600358 -1.1049879 5
-3.1285622 4.9892888 -0.96753532 11
-6.0606465 9.6652441 -1.334107 10
-7.5301867 12.0088 -1.3224097 28
-7.2561669 11.571806 -0.9551056 2
-7.1821427 11.453755 -0.63046014 8
-2.7091134 4.3203712 -1.5912471 17
-2.8168614 4.4922028 -1.5204158 39
-2.9951973 4.7766047 -1.4759494 18
-3.2815223 5.233223 -1.4635904 16
-3.1999538 5.1031413 -1.2803203 25
-3.1303041 4.9920673 -1.110172 12
-3.0822608 4.9460821 -0.95748383 7
-3.1706975 5.0879955 -0.84255403 1
-6.1113787 9.8068857 -1.3512974 10
-7.2112088 11.571774 -1.2720622 12
-7.5340519 12.089839 -0.99612242 7
-10.083302 16.180603 -0.88909137 5
-2.700068 4.3327799 -1.5930341 17
-2.8073571 4.5049458 -1.5220696 48
-2.9705915 4.7668872 -1.4703779 20
-3.2751305 5.2555785 -1.4672793 19
-3.2047081 5.1425719 -1.1416479 30
-3.0656674 4.9540639 -0.95715958 5
-3.1223881 5.0457234 -0.83392525 1
-6.3930826 10.331107 -1.4207554 19
-3.3060529 5.3425226 -0.5861482 10
-10.141749 16.388885 -0.8987807 21
-2.5015907 4.0425258 -1.606347 18
-2.6884508 4.3444886 -1.5942258 17
-2.8720989 4.6412601 -1.5650691 23
-2.9769804 4.8107471 -1.4810144 20
-3.2555299 5.2608781 -1.4658959 16
-3.3394704 5.3965244 -1.3489312 17
-3.2247329 5.2111106 -1.1546085 9
-3.2814312 5.3380628 -1.0294653 5
-3.7597935 6.1162376 -1.0090051 5
-5.9785371 9.7255754 -1.3350362 2
-6.4886045 10.555327 -1.1559473 10
-7.6126022 12.383788 -1.0164913 31
-10.084712 16.405289 -0.89803541 5
-2.6765494 4.3540721 -1.5948215 17
-2.8442204 4.6268311 -1.5573511 23
-3.2551947 5.2953825 -1.4728128 19
-3.2915995 5.3546042 -1.184233 7
-5.8871336 9.6371107 -1.5871302 3
-3.7694311 6.1704774 -0.84557712 5
-6.4684439 10.588703 -1.1576195 7
-7.0704308 11.574142 -0.94840902 9
-10.152376 16.619221 -0.90819055 5
-2.6733363 4.376194 -1.6001832 18
-2.7871897 4.5625696 -1.5330951 37
-2.9492228 4.8278141 -1.4810144 12
-3.2566252 5.3310251 -1.4801905 19
-3.3195505 5.4340329 -1.3535053 18
-3.2592144 5.3352637 -1.1779377 6
-3.2711077 5.3906188 -1.0359502 3
-6.4235702 10.585716 -1.1552042 7
-7.7460833 12.76515 -1.0441148 10
-10.083332 16.616816 -0.90642035 15
-2.6603408 4.3841062 -1.6001832 18
-2.7177889 4.4787774 -1.5022237 20
-2.8435476 4.6860213 -1.4349227 73
-3.2397847 5.3389997 -1.4797295 19
-3.4231689 5.6412077 -1.4025724 22
-3.2586648 5.3701134 -1.1834923 7
-5.4826794 9.0995064 -1.4930491 6
-5.7625594 9.5640182 -1.3057662 7
-6.4375587 10.684303 -1.1637503 11
-14.295505 23.725996 -1.2917585 10
-2.4593062 4.0816674 -1.6101884 18
-2.650497 4.398983 -1.6025661 16
-2.8336823 4.7030125 -1.5744407 18
-2.9825854 4.9501443 -1.5129242 16
-3.222997 5.3491511 -1.4797295 19
-3.2509599 5.3955607 -1.3389515 75
-3.2661231 5.4207273 -1.1923796 9
-3.2450094 5.4155741 -1.0372472 7
-5.7299857 9.5627346 -1.3036755 10
-6.4748936 10.805906 -1.1752689 11
-14.246734 23.776278 -1.2925971 10
-2.4512742 4.0909147 -1.6114689 18
-2.6417036 4.4087214 -1.6037577 18
-2.8310764 4.7247643 -1.5794022 14
-2.9655089 4.9491181 -1.5103916 16
-3.1709063 5.2919044 -1.4617459 26
-3.3041313 5.5142426 -1.3663958 20
-3.3195424 5.5399618 -1.2168196 11
-3.368237 5.6614971 -1.0823166 5
-3.1786599 5.3428464 -0.87372881 3
-5.7222567 9.618248 -1.3087862 7
-5.7567043 9.6761494 -1.0504221 2
-8.1332207 13.670713 -1.1123368 11
-9.2668314 15.576143 -0.84520978 4
-2.4413149 4.1034813 -1.6133896 18
-2.6161249 4.3973103 -1.5966086 20
-2.8162177 4.7336364 -1.5794022 14
-2.9598374 4.975039 -1.5154567 18
-3.0587409 5.1412811 -1.4174784 23
-3.3328009 5.6019344 -1.3855237 60
-3.3121691 5.5672555 -1.2205228 14
-3.4237151 5.7937975 -1.105662 2
-3.1648095 5.3556633 -0.87428546 3
-6.4138284 10.85383 -1.1761978 8
-3.1465118 5.3246989 -0.43249014 4
-13.998571 23.689146 -1.2831872 10
-2.4300938 4.1123376 -1.6140299 18
-2.6166654 4.4280639 -1.6049492 18
-2.7894466 4.7204537 -1.5722356 18
-2.9923112 5.0637527 -1.5397688 14
-3.1801035 5.3815446 -1.4811128 22
-3.3380613 5.6488495 -1.3946717 77
-3.3056362 5.5939779 -1.2242258 24
-3.234684 5.5111823 -1.0498925 5
-5.3233609 9.0698233 -1.4780185 6
-3.1452553 5.3588157 -0.72663885 10
-3.1610606 5.3857446 -0.5826183 7
-6.9713564 11.877642 -0.96305788 4
-9.2227783 15.713564 -0.84968179 9
-2.4284303 4.1375051 -1.6210724 18
-2.608346 4.4440417 -1.6079279 16
-2.7968361 4.7651868 -1.5843636 15
-2.9782512 5.0742779 -1.5402753 19
-3.2163303 5.4799118 -1.5055521 18
-3.2272112 5.4984503 -1.3551685 16
-3.2303252 5.503756 -1.2023778 13
-3.2153368 5.5156398 -1.0489198 5
-3.2307217 5.5420308 -0.90156341 3
-3.1913691 5.474525 -0.74104148 7
-6.5127778 11.172122 -1.2064806 8
-6.9139814 11.860353 -0.95998859 7
-14.415156 24.727987 -1.3348017 11
-2.5961113 4.4534101 -1.6085237 17
-2.7952733 4.7950559 -1.5915302 14
-2.9758511 5.1048217 -1.5468599 19
-3.1579134 5.4171343 -1.485724 20
-3.2098985 5.5063105 -1.3547527 16
-3.2248702 5.5319934 -1.2064512 9
-3.7275774 6.432992 -1.0449117 5
-5.4945631 9.4824276 -1.2816069 7
-6.3876629 11.023725 -1.1886452 8
-7.3730445 12.724279 -1.0283499 10
-10.171567 17.553923 -0.94610953 5
-2.3919864 4.1280508 -1.6121092 19
-2.5834866 4.458539 -1.6079279 20
-2.7807829 4.7990298 -1.5904276 14
-2.9770277 5.1377058 -1.5544574 21
-3.1583569 5.4506407 -1.4926409 17
-3.2131276 5.5451632 -1.3622376 45
-3.3503015 5.7818952 -1.2590343 19
-3.5615952 6.1863065 -1.1727799 3
-5.3598437 9.3097715 -1.5097499 3
-5.1984715 9.0294762 -1.2184209 7
-6.3816905 11.084666 -1.1932899 11
-10.019832 17.403929 -0.93651325 16
-31.441809 54.612797 -1.4630694 46
-2.3974648 4.1642718 -1.6236333 16
-2.5510204 4.4309907 -1.5954173 25
-2.777921 4.8251047 -1.5964917 13
-2.9723208 5.1627674 -1.5595224 27
-3.1508899 5.4729323 -1.4963298 15
-3.1839633 5.5303793 -1.356416 20
-3.3429663 5.8065591 -1.262367 17
-3.2757733 5.7314129 -1.0845864 11
-5.5791531 9.7614908 -1.314826 10
-5.6482205 9.8823338 -1.0619407 7
-9.9799805 17.461338 -0.9379108 5
-2.5484569 4.4588737 -1.6025661 20
-2.7656116 4.8388152 -1.5981455 14
-2.9858503 5.224153 -1.575224 23
-3.1095393 5.4405637 -1.4848019 15
-3.1918137 5.5845141 -1.3672274 23
-3.2554646 5.6958799 -1.2360754 14
-3.3776059 5.9504991 -1.1241437 5
-4.0084405 7.061872 -1.1412196 7
-4.1047668 7.2315755 -0.97241372 7
-13.989313 24.645679 -1.3215719 11
-30.687141 54.063087 -1.4432938 45
-2.341116 4.1244626 -1.6025056 15
-2.5493517 4.4913216 -1.6115025 17
-2.7445977 4.8352966 -1.5942866 15
-2.9674699 5.2279415 -1.5737045 21
-3.1001062 5.4616141 -1.4880297 17
-3.1337032 5.5208035 -1.349347 13
-3.2201147 5.673039 -1.2290397 8
-3.3387437 5.9180679 -1.116362 16
-4.0240002 7.1327143 -1.1509616 4
-4.07899 7.2301865 -0.97078764 10
-7.1250086 12.629387 -1.01398 13
-15.955788 28.282326 -1.5143342 16
-2.3768613 4.2130899 -1.6345173 19
-2.5488429 4.5179343 -1.6186515 16
-2.7224839 4.8257208 -1.5887738 18
-2.9623301 5.2508583 -1.578263 23
-3.0724106 5.445981 -1.4815739 17
-3.0990541 5.4932075 -1.3406147 16
-3.2631965 5.7841573 -1.2512579 8
-3.4956415 6.2419143 -1.1753739 5
-3.778995 6.7478781 -1.086942 9
-5.091917 9.092268 -1.2186532 5
-7.0096183 12.516568 -1.3383871 15
-7.2354288 12.919782 -1.0354651 10
-7.2696276 12.980847 -0.69381362 3
-28.950836 51.695412 -1.3756111 41
-2.5281074 4.5142584 -1.6144812 17
-2.6265237 4.6899934 -1.5413642 76
-3.0138884 5.3816819 -1.6147312 13
-3.0533857 5.4522099 -1.4806517 17
-3.0989883 5.533639 -1.3480995 23
-3.200834 5.7154975 -1.234224 8
-3.3610408 6.0435634 -1.1361407 8
-3.8369255 6.8992624 -1.1094881 5
-5.1382914 9.2392769 -1.2363081 5
-6.9163103 12.436374 -1.3276117 21
-7.2533011 13.042324 -1.0435569 28
-7.2310767 13.002362 -0.69381362 3
-2.495214 4.4867005 -1.6019704 20
-2.6144638 4.7011266 -1.5424668 70
-2.9950845 5.385529 -1.6132118 15
-3.0371935 5.4612465 -1.4806517 15
-3.0521281 5.4881001 -1.3347931 16
-3.1695311 5.6992054 -1.2286694 8
-3.2582579 5.8974566 -1.106959 10
-3.2190433 5.826478 -0.9355216 2
-5.1816373 9.3787794 -1.2530338 5
-3.176918 5.7502313 -0.61290109 10
-15.602938 28.241364 -1.5046449 15
-28.389606 51.385273 -1.3629844 40
-2.3328524 4.2224698 -1.6300356 18
-2.5112975 4.5454559 -1.6204387 13
-2.701735 4.8901486 -1.6020044 20
-2.9800346 5.3938713 -1.6132118 15
-3.0200498 5.4662991 -1.4797295 14
-3.0415218 5.5051637 -1.3368723 21
-3.1963749 5.7854486 -1.2453331 11
-3.1741142 5.7856493 -0.92744964 5
-5.1767154 9.4359112 -1.2586091 2
-6.9173598 12.608689 -1.3417312 9
-6.615716 12.058865 -0.9618023 4
-7.3367224 13.373086 -0.71132898 3
-28.279318 51.546417 -1.365027 40
-2.3130217 4.216084 -1.6249138 18
-2.4904518 4.5394969 -1.6156727 17
-2.6918361 4.9065723 -1.6047609 18
-2.9686687 5.4111714 -1.6157442 15
-3.0328341 5.5281296 -1.4940242 12
-3.1926627 5.819459 -1.4108888 66
-3.1763575 5.7897382 -1.2442222 9
-3.2334967 5.9380484 -1.1108499 3
-3.2335904 5.9382205 -0.95027405 2
-5.1137986 9.3910666 -1.2504785 2
-6.160614 11.313457 -1.201836 2
-6.0339456 11.08084 -0.88227987 6
-9.710948 17.833351 -0.94694799 5
-28.130638 51.659584 -1.3656769 40
-2.2843618 4.1950407 -1.6140299 19
-2.686523 4.9335766 -1.6108248 15
-2.9516556 5.4204702 -1.6157442 15
-3.0992155 5.691452 -1.5355248 16
-3.3315403 6.1180973 -1.4807472 33
-3.2098498 5.8946233 -1.264589 14
-3.2274349 5.9615512 -1.113768 7
-5.000216 9.2361412 -1.47607 4
-6.021101 11.121867 -0.88437259 2
-12.925939 23.876129 -1.2661377 10
-28.076679 51.861794 -1.3692049 41
-2.2777133 4.2072744 -1.6165907 18
-2.402344 4.4374862 -1.574566 12
-2.6854441 4.9604139 -1.6174401 15
-2.9485354 5.4463825 -1.6213158 18
-3.1038306 5.7332358 -1.5447472 16
-3.1629071 5.8423591 -1.4121363 88
-3.306787 6.1081266 -1.3086551 7
-3.2236342 5.9994779 -1.1189559 7
-3.2659936 6.0783124 -0.96975827 5
-5.1797371 9.6399641 -1.2797484 2
-6.0068455 11.179288 -1.1840007 8
-9.4580059 17.602213 -0.93185496 5
-2.4417064 4.544239 -1.6097152 12
-2.6834953 4.9942298 -1.6257092 14
-2.9249985 5.4436893 -1.6177703 18
-3.0323761 5.6435289 -1.5180023 23
-3.2019446 5.9591112 -1.4379174 38
-3.2736254 6.0925159 -1.3031005 5
-3.2551904 6.0989919 -1.1358165 5
-5.1658931 9.6789236 -1.2830007 2
-6.4359794 12.058584 -0.95580322 14
-12.817889 24.015862 -1.2694917 10
-27.914352 52.300907 -1.3764002 41
-2.4397955 4.5712514 -1.6168643 12
-2.6713495 5.005096 -1.6268119 14
-2.9097862 5.4518356 -1.6177703 18
-2.9781191 5.5798659 -1.4986354 15
-3.2820115 6.1492443 -1.4815788 24
-3.7331986 6.9945979 -1.4938073 10
-3.7268476 7.0328498 -1.3076642 6
-3.6760674 6.9370236 -1.1033645 5
-6.0719438 11.458228 -1.5164636 6
-6.4169679 12.109316 -1.2785647 9
-6.7325077 12.704763 -0.67052191 9
-27.906046 52.66087 -1.3836884 42
-2.2304149 4.2089658 -1.6095482 19
-2.4387379 4.602087 -1.6252047 11
-2.6582887 5.0163965 -1.6279143 15
-2.8935986 5.4604445 -1.6177703 15
-2.9679301 5.6007137 -1.5018632 15
-3.3077216 6.2419267 -1.5015383 24
-3.6756186 6.9361768 -1.4789951 9
-3.6875842 7.0089469 -1.3011793 8
-3.5853822 6.814693 -1.0822102 5
-6.3015203 11.977224 -1.5826695 13
-5.7477279 10.924638 -1.1516743 2
-7.371047 14.01006 -0.73825419 3
-27.843687 52.922165 -1.388377 42
-2.2240913 4.2273035 -1.6140299 18
-2.431294 4.6211314 -1.629375 12
-2.6407061 5.0191584 -1.6262604 15
-2.8773828 5.469007 -1.6177703 15
-3.0210705 5.7421126 -1.5373693 27
-3.2846308 6.2430582 -1.4994593 49
-2.9183426 5.5468588 -1.1809001 1
-3.6637213 7.0169978 -1.3005309 9
-3.8627865 7.3982601 -1.172951 7
-6.4629412 12.378246 -0.97645116 10
-7.3279238 14.034917 -0.73834735 14
-2.2257087 4.2628226 -1.6249138 15
-2.4229505 4.6405926 -1.6335452 11
-2.6169178 5.0120916 -1.621299 15
-2.8628747 5.4831643 -1.6192898 15
-2.9543781 5.6584177 -1.5124689 36
-3.2459886 6.2169285 -1.4907269 88
-3.6650093 7.0674968 -1.3079885 12
-3.605058 6.9518881 -1.1005809 19
-3.6624849 7.0626287 -0.93036711 7
-6.2317996 12.01722 -0.94659537 7
-7.2804275 14.039363 -0.73750889 10
-28.572056 55.097515 -1.4409727 45
-2.4082253 4.6439509 -1.6323538 11
-2.6188426 5.0500994 -1.6312219 14
-2.8484433 5.4928546 -1.6197963 15
-3.0254691 5.8342257 -1.5571973 20
-3.1709781 6.1148214 -1.4641143 44
-3.6253767 7.0391049 -1.300855 12
-3.6173677 7.0235543 -1.1103231 11
-5.638298 10.947433 -1.4400364 11
-6.5289063 12.676658 -0.99709904 10
-15.370605 29.843878 -1.5654829 17
-29.743711 57.750996 -1.5081912 48
-2.1688981 4.2111769 -1.6005849 16
-2.6108904 5.0693579 -1.6350808 14
-2.838407 5.5111089 -1.6228353 18
-3.0082724 5.8409228 -1.5567364 28
-3.2273386 6.2662659 -1.4982117 19
-2.8617275 5.5563884 -1.1775674 1
-3.618289 7.0737996 -1.3053944 12
-3.6238968 7.0847626 -1.1183951 7
-3.6048899 7.0476036 -0.92572111 10
-6.4712191 12.651313 -1.3257538 12
-6.8052335 13.304315 -0.69688815 9
-28.581659 55.877495 -1.4571738 46
-2.6002266 5.0834751 -1.6372859 13
-2.8168395 5.5069556 -1.6192898 20
-3.0194242 5.9030113 -1.571031 25
-2.8462009 5.5643578 -1.1775674 1
-3.541564 6.9777808 -1.2856158 13
-3.7238841 7.336998 -0.96219242 10
-3.986306 7.8540354 -0.82172215 6
-6.2269244 12.268623 -0.96208131 4
-6.7634053 13.325627 -0.69688815 9
-2.1601653 4.2560744 -1.6127493 15
-2.215528 4.3651533 -1.5275018 32
-2.5833745 5.0899038 -1.6367347 13
-2.8021526 5.5209527 -1.6208092 20
-2.9453752 5.8031378 -1.5419805 30
-2.8126955 5.5417252 -1.1709019 3
-3.6602373 7.2617784 -1.1428896 16
-3.8705761 7.6790829 -1.0056328 30
-3.9562888 7.8491335 -0.82005006 6
-6.7305408 13.353148 -1.0456495 11
-6.7684264 13.428313 -0.701267 3
-2.1482706 4.2620907 -1.6127493 16
-2.3545711 4.6713839 -1.6323538 13
-2.5388629 5.0370121 -1.6174401 14
-2.7989149 5.5529461 -1.6279004 18
-2.9168937 5.7870111 -1.5355248 22
-3.2931652 6.5335202 -1.5551796 13
-2.786592 5.5284977 -1.1664582 1
-3.66733 7.3298759 -1.3465731 20
-3.7184324 7.432014 -1.1679407 21
-3.701118 7.3974075 -0.96730304 7
-3.9392207 7.8733025 -0.82135051 6
-6.7524905 13.496172 -1.0552759 11
-6.7044201 13.400094 -0.69875145 9
-2.1483328 4.2938633 -1.6223528 15
-2.3466809 4.6903005 -1.636524 13
-2.5049822 5.0066967 -1.6053121 15
-2.7780988 5.5525737 -1.6253678 20
-3.0346828 6.0654068 -1.6069982 15
-3.5168059 7.0290241 -1.4808465 11
-3.6187446 7.2835321 -1.3361974 45
-3.7302675 7.507997 -1.1782396 13
-3.6769083 7.4005995 -0.96637392 10
-6.0357566 12.148308 -1.2655598 6
-6.5283494 13.139761 -1.0259782 10
-8.4297171 16.966688 -0.88350141 5
-27.831095 56.016296 -1.4522067 46
-2.1397049 4.3066344 -1.6249138 16
-2.3250775 4.679738 -1.6305665 17
-2.5072429 5.0463862 -1.6157863 15
-2.7737722 5.5828362 -1.6319523 18
-2.9666421 5.9710298 -1.5797923 27
-2.9368949 5.9111571 -1.4029882 28
-3.5198984 7.0845823 -1.4904745 26
-3.6224327 7.3455672 -1.3456004 34
-3.6256351 7.3520608 -1.1520751 15
-3.6452711 7.3918786 -0.96381855 12
-3.6921158 7.4868703 -0.77880609 6
-14.423283 29.247524 -1.5207626 16
-2.1269183 4.3129635 -1.6249138 16
-2.3145609 4.6934648 -1.6329495 16
-2.4786549 5.0262151 -1.6069659 15
-2.7529178 5.582365 -1.6294198 15
-2.9446101 5.9710784 -1.5774866 25
-3.2014153 6.491828 -1.5385467 43
-3.4893022 7.0756049 -1.4864012 26
-3.5707183 7.298409 -1.3349004 50
-3.6120954 7.3829823 -1.1551368 15
-3.6490953 7.4586086 -0.97101992 10
-4.7607498 9.7307873 -1.0106643 5
-6.5417838 13.371152 -1.0409061 10
-11.218002 22.929161 -1.190393 9
-2.1141918 4.3213253 -1.625554 15
-2.2402337 4.5789504 -1.5906512 42
-2.502563 5.1151414 -1.6328758 14
-2.7430203 5.6066265 -1.6339782 15
-2.9737327 6.0781937 -1.6033093 18
-3.0606434 6.2558365 -1.4803314 100
-3.5416567 7.2840385 -1.3306853 45
-3.6468737 7.5004354 -1.1721159 12
-3.6213055 7.4478502 -0.96846455 10
-5.9560308 12.249622 -1.2707617 9
-6.5884848 13.550375 -1.0536019 11
-13.113561 26.970339 -1.3985277 12
-2.1027987 4.3247743 -1.6249138 18
-2.2432315 4.6135993 -1.6007789 27
-2.5085526 5.1592784 -1.6450039 12
-2.7233911 5.6011314 -1.6304327 15
-2.9665315 6.1011925 -1.6074593 18
-2.9965899 6.1630125 -1.4566295 44
-3.628453 7.5225601 -1.1737859 9
-3.5875311 7.4377203 -0.9656769 10
-8.0736465 16.738398 -0.86663812 14
-2.0924928 4.3381858 -1.6274747 16
-2.2436552 4.6515779 -1.6115025 21
-2.1323457 4.4208093 -1.4074044 9
-2.7024174 5.6026897 -1.6284068 18
-2.9608755 6.1385288 -1.6148372 21
-3.0944982 6.4155574 -1.5140132 55
-3.2310345 6.698626 -1.4012312 18
-3.5530999 7.4225349 -1.1565286 12
-4.6727362 9.7614899 -1.2655782 7
-6.3918166 13.352702 -1.3811175 29
-6.0998483 12.742771 -0.9878912 5
-8.0317144 16.778498 -0.8674767 4
-2.082067 4.3495026 -1.6293954 16
-2.1333964 4.4567308 -1.5417998 28
-2.1408024 4.4722023 -1.4217377 14
-2.6874537 5.6141734 -1.6294198 18
-2.9535737 6.1701064 -1.6208317 21
-3.1126156 6.5023503 -1.5323093 39
-3.259517 6.8092313 -1.4223385 15
-3.5693018 7.5135484 -1.1690542 6
-4.6761398 9.8434944 -1.2744055 7
-6.1710176 12.990283 -1.3417312 12
-6.8479042 14.415161 -1.1159641 12
-10.873409 22.889038 -1.1817285 9
-2.0683384 4.3539495 -1.6287552 16
-2.1996276 4.6303201 -1.5995876 22
-2.1068988 4.4351215 -1.4079556 4
-2.6774242 5.6361041 -1.6334718 18
-2.9402621 6.1893902 -1.6235985 18
-3.1461916 6.6228814 -1.5585061 31
-3.260381 6.8632555 -1.431596 18
-3.494916 7.4136329 -1.3465731 23
-3.5875313 7.6100941 -1.1824148 7
-3.5355861 7.4999046 -0.96962613 2
-4.5488143 9.6492281 -0.99524432 10
-6.9846134 14.816196 -1.1454012 9
-13.902095 29.489986 -1.52039 16
-2.0481403 4.3446426 -1.6229931 18
-2.2241435 4.7179914 -1.6275877 16
-2.6763666 5.6772747 -1.6430954 18
-2.9268653 6.2086487 -1.6263652 19
-3.0948296 6.5649447 -1.5427049 28
-3.1763105 6.7377872 -1.403453 24
-3.668812 7.8356285 -1.4214728 12
-3.7206295 7.9462972 -1.0260754 7
-4.5412712 9.6989746 -0.99914575 10
-6.4466529 13.768374 -1.0630887 5
-13.607975 29.063097 -1.4965394 15
-2.0118527 4.2967944 -1.6031458 22
-2.2012603 4.7013197 -1.6198429 18
-2.4138961 5.1554546 -1.6323246 13
-2.6434455 5.6457124 -1.6319523 22
-2.8858449 6.163415 -1.6125317 25
-3.0933945 6.6066866 -1.5506055 60
-3.1661623 6.7620993 -1.4067857 24
-3.2052779 6.9020257 -1.2502735 2
-3.2074614 6.9067273 -1.0702412 4
-3.5835285 7.7165246 -0.9949469 2
-4.5611005 9.8215609 -1.0102928 7
-6.5831943 14.175799 -1.0929445 5
-13.226284 28.480574 -1.4643967 14
-2.1993449 4.7359185 -1.629375 13
-2.4163105 5.2031178 -1.6450039 13
-2.6159148 5.6329317 -1.6258743 24
-2.8926964 6.2289338 -1.6272875 22
-3.1434841 6.7689629 -1.5863664 27
-3.4495399 7.4280024 -1.5430577 20
-4.4526672 9.6585779 -1.2437418 7
-5.8950887 12.78743 -1.3136778 3
-7.0091228 15.203956 -0.78073829 16
-1.988699 4.3138194 -1.6050667 19
-2.1685271 4.7038965 -1.6162684 16
-2.4009674 5.2080984 -1.6444525 12
-2.6341968 5.7140121 -1.6471474 18
-2.8891425 6.2670321 -1.6351265 16
-3.1466842 6.8256826 -1.5975935 21
-3.454293 7.4929376 -1.5545372 26
-3.4191356 7.4749351 -1.350464 13
-3.4740922 7.5950818 -1.1737859 12
-4.5173588 9.8758774 -1.2699919 7
-5.784225 12.645508 -1.2973288 3
-6.1122141 13.362558 -1.0275128 7
-6.8792124 15.039375 -0.77123535 11
-1.9932287 4.3576083 -1.6191516 18
-2.1648834 4.7328811 -1.6240132 17
-2.3966985 5.2396765 -1.6521704 11
-2.6156201 5.7182846 -1.6461345 18
-2.8745809 6.2844257 -1.637432 16
-3.1068859 6.7922926 -1.5876138 24
-3.4418535 7.524601 -1.5589807 18
-3.3905778 7.4640961 -1.3468974 11
-3.3996315 7.4840269 -0.96126318 7
-5.9311604 13.056993 -1.0028191 7
-6.8175087 15.008221 -0.76871979 3
-25.233236 55.549026 -1.4165086 44
-1.9857324 4.3714371 -1.6223528 16
-2.1595929 4.7541771 -1.629375 15
-2.3789978 5.2371802 -1.6494141 12
-2.5966406 5.7163043 -1.6436019 15
-2.854095 6.2830706 -1.6351265 16
-3.0971851 6.8182144 -1.591772 25
-3.4587226 7.6141114 -1.5756444 52
-3.3671134 7.4747105 -1.3468974 13
-3.4123974 7.5752368 -1.1676624 13
-5.1669569 11.470213 -1.4711648 11
-5.8560667 12.999979 -1.3302126 12
-5.9581275 13.226545 -1.0143987 2
-7.0755711 15.707176 -0.80337781 4
-1.9470874 4.3223715 -1.6018654 19
-2.1179862 4.7017527 -1.6091195 20
-2.3467417 5.2095704 -1.6383885 13
-2.5500627 5.6609259 -1.6253678 22
-2.799973 6.2157063 -1.6152984 25
-3.0596812 6.7922368 -1.5834556 18
-2.9859636 6.6285896 -1.3697553 3
-3.3650491 7.5297136 -1.3550035 26
-3.3907118 7.5871372 -1.1679407 15
-5.8507776 13.091839 -1.3378297 15
-6.688117 14.965489 -1.1462384 6
-13.495419 30.19767 -1.5424707 17
-2.1102569 4.721961 -1.6138854 22
-2.3163688 5.1831617 -1.6279143 14
-2.5024662 5.5995774 -1.6056142 24
-2.7521369 6.158247 -1.5982369 18
-3.03632 6.7941418 -1.5817922 16
-2.9598658 6.6230659 -1.3667929 7
-3.3104019 7.4633107 -1.3413852 23
-3.3751338 7.6092486 -1.1698891 9
-4.9050865 11.058531 -1.4147155 11
-4.2889905 9.6695404 -0.986884 7
-13.099177 29.532133 -1.5066015 15
-2.0916448 4.7156186 -1.6097152 22
-2.3174767 5.2247577 -1.6389397 11
-2.5174153 5.6755199 -1.6253678 18
-2.7609699 6.2246141 -1.6134539 18
-3.018923 6.8061705 -1.582624 13
-2.9397666 6.6277118 -1.3660523 5
-3.0156121 6.8535037 -1.2301706 13
-3.3405752 7.5920391 -1.165714 6
-4.9818563 11.322136 -1.4465408 40
-4.3100033 9.7952328 -0.9984026 5
-6.5294919 14.839408 -1.1336823 21
-12.985739 29.512352 -1.5036199 15
-2.0737979 4.7130671 -1.6067364 18
-2.2988658 5.2245727 -1.6367347 13
-2.5270572 5.7431774 -1.642589 15
-2.7816768 6.3218451 -1.6365099 19
-2.9025908 6.5966434 -1.5318935 60
-2.9121711 6.6184163 -1.3623492 5
-3.3483996 7.6751356 -1.3757547 12
-3.3578904 7.6968908 -1.1801881 4
-4.1390657 9.4874849 -0.96570468 7
-6.6001191 15.128663 -1.1541907 12
-2.0612724 4.7248082 -1.6085237 16
-2.3008921 5.2740598 -1.6499653 11
-2.5237024 5.7847815 -1.6522124 15
-2.7477961 6.2984443 -1.6282097 19
-2.9499104 6.7617269 -1.5680701 28
-3.4399314 7.8849435 -1.6208216 14
-3.3967404 7.8456435 -1.4046123 4
-3.5456958 8.1896944 -1.254228 3
-3.4805405 8.0392008 -1.0244492 2
-5.8103504 13.420495 -1.0226299 7
-12.85008 29.680559 -1.5082784 15
-1.8963085 4.3800111 -1.6127493 16
-2.0556564 4.7480659 -1.6144812 25
-2.2716434 5.2469435 -1.6394911 11
-2.5167642 5.8131127 -1.6582905 15
-2.7379298 6.3239517 -1.6328208 16
-2.9784305 6.8794489 -1.5934354 16
-3.4280522 7.9179659 -1.6256355 20
-3.4267092 7.9758849 -1.0151572 5
-4.3241925 10.064836 -1.0219972 10
-6.6426339 15.461156 -0.7847445 12
-1.8863124 4.3905129 -1.61467 15
-2.0627365 4.8011513 -1.6305665 16
-2.2418027 5.2179394 -1.6284657 14
-2.5051019 5.8307853 -1.6613295 15
-2.7333171 6.3619709 -1.6406598 16
-2.9661555 6.9039173 -1.5971777 18
-3.3919599 7.8950038 -1.61897 32
-3.3935173 7.9598393 -1.011905 2
-4.1804886 9.8057604 -0.99450111 10
-6.4003797 15.012741 -1.1412159 9
-9.2970314 21.807131 -1.105518 16
-1.8621558 4.3678756 -1.6044263 18
-2.0186231 4.7348857 -1.6061407 18
-2.2166679 5.1994195 -1.6207477 16
-2.4834988 5.8252988 -1.657784 15
-2.7109623 6.3588376 -1.6378932 16
-2.950702 6.9211712 -1.5992569 21
-3.3922539 7.9568763 -1.6297088 44
-4.0262446 9.5221767 -1.4529673 37
-3.3536403 7.9314494 -1.0070266 5
-4.1800723 9.8859835 -1.0013752 10
-9.0372181 21.373264 -1.6226751 11
-12.347588 29.202375 -1.4785581 14
-2.0283597 4.7971249 -1.6252047 17
-2.1780219 5.1510806 -1.6036582 20
-2.664042 6.3005309 -1.6208317 21
-2.9674866 7.0181856 -1.6196322 21
-3.9780579 9.4865952 -1.4457303 74
-4.0767908 9.7220459 -0.98353988 16
-4.2033377 10.023827 -0.76006657 1
-14.39784 34.334965 -1.7362577 23
-1.8332723 4.3718596 -1.6018654 15
-1.9801536 4.7221317 -1.5978003 25
-2.1471145 5.1202888 -1.5920815 16
-2.4631026 5.8738346 -1.6674075 18
-2.6626437 6.3496866 -1.6314374 16
-2.9534566 7.0431972 -1.6233747 22
-3.4019802 8.1128044 -1.6574817 10
-3.6707444 8.8227358 -1.5699751 19
-3.9599211 9.5177803 -1.4487921 40
-4.0221343 9.6673107 -1.2244607 23
-4.0534525 9.7425852 -0.98446882 16
-4.4236441 10.632351 -0.80526876 5
-10.731036 25.792343 -1.3027523 21
-1.8312471 4.401453 -1.6108286 15
-1.955959 4.7012014 -1.588864 36
-2.1911507 5.2664909 -1.6356323 13
-2.3240592 5.5859408 -1.5838345 27
-2.6463981 6.3606906 -1.6323597 19
-2.9706004 7.1399202 -1.64375 18
-3.3460939 8.042429 -1.6411883 25
-3.618233 8.7654552 -1.5579783 27
-3.9151924 9.4848633 -1.4421117 24
-4.0027037 9.696866 -1.2267838 26
-4.0665021 9.8514223 -0.99431539 10
-4.4723468 10.834613 -0.81963861 5
-10.761882 26.071508 -1.3153298 10
-1.9814328 4.8001776 -1.6204387 22
-2.1617651 5.2370472 -1.6246066 16
-2.3955638 5.803443 -1.6436019 18
-2.6308541 6.3734522 -1.6337432 19
-2.9282587 7.0939384 -1.6312753 25
-3.3341222 8.0771751 -1.6463724 19
-3.6205661 8.849844 -1.5709479 21
-3.8898723 9.5081158 -1.4437819 19
-4.0474343 9.8932495 -1.2500138 21
-3.913378 9.5655718 -0.96421832 2
-6.240037 15.252685 -1.1523769 6
-10.073977 24.624086 -1.2407031 9
-1.9207973 4.695055 -1.5829065 32
-2.1351087 5.2189016 -1.6168888 16
-2.0828092 5.0910645 -1.4399878 5
-2.6218698 6.4087043 -1.6406598 16
-2.9237339 7.1465592 -1.641255 19
-3.541661 8.7264261 -1.5472784 79
-3.8923545 9.5905123 -1.4546374 19
-7.4901772 18.455317 -1.3927578 13
-9.9736242 24.574373 -1.2367901 9
-1.7949058 4.422533 -1.6127493 16
-1.8861402 4.6473289 -1.565034 20
-2.1234193 5.2319689 -1.6190939 16
-2.3647208 5.8265204 -1.6461345 9
-2.609087 6.4286237 -1.6438876 13
-2.9096522 7.1691966 -1.6445816 21
-3.2809579 8.0840702 -1.6437804 36
-3.50475 8.7051592 -1.5417662 61
-3.9062414 9.7023907 -1.4699464 26
-4.0536976 10.068645 -1.2692949 47
-4.1283784 10.254139 -1.0312864 7
-6.6450524 16.505096 -1.2441764 10
-8.3597155 20.764008 -1.0438415 7
-1.7811345 4.4240131 -1.6114689 15
-1.9066687 4.735817 -1.5930341 25
-2.128906 5.2878137 -1.6345296 14
-2.3469968 5.8295116 -1.6451213 9
-2.5991211 6.4557428 -1.64896 16
-2.895467 7.1918116 -1.6479082 21
-3.2796586 8.1460733 -1.6545193 19
-3.5607517 8.9250956 -1.5787297 19
-3.8544555 9.6612692 -1.4618744 78
-3.9918635 10.005686 -1.2597705 26
-4.030467 10.102447 -1.0147516 5
-5.9129977 14.821047 -1.1158246 3
-6.9159789 17.335039 -0.87036479 14
-20.953823 52.521175 -1.3128492 35
-1.7637153 4.4207873 -1.6082677 18
-1.903807 4.7719302 -1.6031621 17
-2.1236804 5.3230472 -1.64335 13
-2.3243678 5.8260741 -1.6420823 11
-2.5766618 6.4584541 -1.6475767 19
-2.8706822 7.1954226 -1.6466608 22
-3.2416675 8.1253042 -1.6482241 17
-3.5153835 8.8879042 -1.5702995 28
-3.7973654 9.6008358 -1.4510189 11
-4.0578713 10.25947 -1.290202 10
-4.3286004 10.943952 -1.0979828 7
-6.8637829 17.353624 -0.87027168 14
-1.7589544 4.4471445 -1.6159506 16
-1.8987696 4.8006377 -1.6109068 13
-2.0916147 5.2882056 -1.6306707 15
-2.3957222 6.0570769 -1.5433638 24
-2.847163 7.1984501 -1.6454133 25
-3.2161005 8.1312304 -1.6474835 17
-3.5208185 8.9748516 -1.5839176 21
-3.7944057 9.6722469 -1.4602042 19
-4.2098422 10.731228 -1.3480451 13
-5.8710504 14.965782 -1.4998332 3
-5.946301 15.157602 -1.1385652 12
-7.8724966 20.067631 -1.0052705 6
-1.8665291 4.7579336 -1.5948215 16
-2.0747311 5.2886577 -1.6290169 15
-2.5003304 6.3735442 -1.6222152 28
-2.8477669 7.2591877 -1.6574723 16
-3.1984031 8.1529884 -1.6500757 17
-3.4970372 8.9926147 -1.5852146 21
-4.0269799 10.35536 -1.5615222 29
-4.0541506 10.425229 -1.3080891 10
-5.8064137 14.931166 -1.4946313 7
-5.4782848 14.087384 -1.0569501 2
-11.522433 29.629883 -1.4825643 15
-1.8357974 4.7207446 -1.5805235 12
-2.0785415 5.3449597 -1.6444525 11
-2.2257535 5.723515 -1.6076403 18
-2.5420699 6.536921 -1.6618713 20
-2.7581496 7.0925694 -1.6175531 84
-3.1642277 8.136797 -1.6448914 17
-3.4659324 8.9961901 -1.5839176 24
-3.7437987 9.7174206 -1.4635445 4
-4.0128112 10.415671 -1.3053017 10
-5.4332862 14.102662 -1.0568106 5
-11.192997 29.052593 -1.4519124 13
-1.8195859 4.7229252 -1.5793319 13
-2.0651965 5.3604336 -1.6472089 13
-2.2439327 5.8243618 -1.6339782 13
-2.480943 6.4395466 -1.6351265 29
-2.7956364 7.2563663 -1.6528981 18
-3.1238129 8.1081829 -1.6371149 17
-3.4791918 9.0967979 -1.6001297 31
-3.7087247 9.6969414 -1.4590908 6
-4.0902452 10.694476 -1.3389853 5
-5.0535426 13.213142 -1.3198087 12
-6.273313 16.40239 -1.2279929 14
-11.852786 30.990644 -1.5473154 17
-1.8196353 4.7576723 -1.5894598 17
-2.0575871 5.3798285 -1.6516191 11
-2.2414451 5.8605485 -1.642589 13
-2.4589446 6.4292293 -1.6309764 29
-2.7765009 7.2595215 -1.6520665 22
-3.0871422 8.0717335 -1.6282277 20
-3.5282056 9.3125372 -1.6361203 21
-4.8419738 12.780168 -1.2750348 12
-4.821466 12.726039 -0.95161778 7
-11.199725 29.561163 -1.4741793 14
-1.7965612 4.7419415 -1.5823108 13
-1.9766479 5.2172718 -1.5997993 37
-2.2237065 5.8693714 -1.6430954 18
-2.4270113 6.4059854 -1.6231374 28
-2.7675407 7.3047972 -1.660383 16
-3.0276463 7.991334 -1.6100826 44
-3.4665682 9.2324324 -1.6202326 40
-3.8227704 10.181097 -1.5283991 68
-3.9557104 10.535153 -1.3159876 10
-4.8068347 12.801933 -1.2757779 12
-5.5004349 14.649183 -1.0942 5
-11.251723 29.966459 -1.4927195 15
-19.796217 52.722813 -1.3075106 35
-1.6690847 4.4452353 -1.6044263 15
-1.8100003 4.8205328 -1.6067364 13
-1.9604843 5.2213135 -1.5992479 33
-2.2232854 5.9212255 -1.6557579 15
-2.4463038 6.5151854 -1.64896 19
-2.745856 7.3129759 -1.660383 18
-3.0667932 8.1677208 -1.6437804 23
-3.4859576 9.368453 -1.6422809 24
-3.8809507 10.429991 -1.5640274 35
-3.93413 10.572909 -1.3192397 10
-4.8808422 13.117184 -0.97868335 7
-8.7458515 23.504332 -1.1695236 8
-1.6545655 4.4466176 -1.6031458 16
-1.8163283 4.8813524 -1.6252047 13
-1.9235278 5.1694493 -1.5816072 37
-2.2077296 5.9332371 -1.6572775 13
-2.4398553 6.5570707 -1.6577213 20
-2.7371061 7.355927 -1.6682835 19
-3.045285 8.1841536 -1.6452616 23
-3.4403956 9.3306112 -1.6338506 34
-3.7773604 10.244485 -1.5345228 68
-4.9085212 13.312278 -1.3237102 12
-5.0151491 13.601461 -1.0137011 2
-10.322412 27.995153 -1.3914471 11
-1.6439875 4.4586177 -1.6057068 16
-1.7800416 4.8276062 -1.605545 16
-1.9440978 5.2725391 -1.611376 20
-2.194802 5.9524679 -1.6608229 11
-2.4136579 6.546021 -1.6531101 16
-3.0590668 8.2964182 -1.6659986 17
-3.4234149 9.3599739 -1.6374173 27
-3.7369227 10.217136 -1.5289557 82
-4.9331646 13.487787 -1.3398734 12
-6.1452522 16.801762 -1.2510126 14
-10.870142 29.720104 -1.4757631 14
-1.6388184 4.4807005 -1.6121092 15
-1.9434961 5.3137212 -1.6224015 18
-2.1738954 5.9436569 -1.6567709 11
-2.35373 6.4353437 -1.6235985 28
-3.0386882 8.3080912 -1.6667393 17
-3.4249055 9.4560394 -1.6523324 22
-3.6299388 10.022129 -1.4980594 34
-4.1515422 11.462257 -1.4256337 5
-5.1498137 14.21845 -1.4108428 13
-6.1100984 16.869761 -1.2546399 15
-10.49913 28.987719 -1.4377511 13
-1.7710614 4.8898363 -1.6228218 12
-1.9529794 5.3921056 -1.6444525 11
-2.1591637 5.9613724 -1.6598099 11
-2.3460915 6.4774737 -1.6323597 29
-2.6801386 7.3997655 -1.6728576 21
-3.0179248 8.3323803 -1.6697017 14
-3.3738124 9.396841 -1.6403354 32
-3.630048 10.110516 -1.5097499 82
-5.1248951 14.274007 -1.4149301 13
-7.6513543 21.310776 -1.5833325 5
-10.543714 29.366659 -1.45508 14
-1.7580456 4.8965597 -1.6234175 12
-1.9268712 5.3667779 -1.6350808 12
-2.1379325 5.9546318 -1.6562645 11
-2.3694253 6.5993924 -1.6614102 16
-2.6634319 7.4182677 -1.6753526 17
-2.954797 8.2297869 -1.6474835 31
-3.3637714 9.457016 -1.6490901 24
-3.6876419 10.367557 -1.5464916 19
-4.2505503 11.950135 -1.4832445 37
-6.6667361 18.743078 -1.3910836 8
-8.5879021 24.144308 -1.1950513 9
-1.739669 4.8909621 -1.6198429 13
-1.9173803 5.3905854 -1.6405936 11
-2.1144178 5.9445434 -1.651706 11
-2.3570061 6.626564 -1.6664824 16
-2.655175 7.4648452 -1.6840849 14
-2.8868918 8.1163015 -1.6230434 48
-3.3495069 9.4955673 -1.6542779 22
-3.7738082 10.698425 -1.5943671 27
-3.9674847 11.247481 -1.3947376 5
-5.3802834 15.252646 -1.5089368 47
-5.5796361 15.817795 -1.1728854 3
-10.168858 28.827847 -1.4255462 13
-1.7293996 4.9027009 -1.6222259 13
-1.8968668 5.3774562 -1.6350808 13
-2.0975616 5.9464087 -1.6506928 13
-2.3467722 6.6528997 -1.6715548 16
-2.5926731 7.350008 -1.6566405 24
-2.946707 8.3536634 -1.6689612 14
-3.3138056 9.489274 -1.6513598 21
-3.6520317 10.457805 -1.5567905 21
-5.4367309 15.568394 -1.5384763 27
-7.4249706 21.261833 -1.5748221 10
-9.8839407 28.303238 -1.3980619 12
-1.5704552 4.4970894 -1.6095482 16
-1.7051777 4.882875 -1.6138854 13
-1.8584143 5.3216772 -1.6163375 14
-2.0846124 5.969408 -1.6552514 11
-2.326503 6.662076 -1.6720159 16
-2.5818257 7.393208 -1.6645411 24
-2.9308181 8.3925676 -1.674886 14
-3.2798262 9.4822788 -1.6484416 21
-3.925976 11.350357 -1.4044944 22
-5.4601617 15.785829 -1.5583552 23
-7.5059791 21.700474 -1.6056546 16
-5.3780007 15.548293 -0.76722914 7
-1.5589619 4.507102 -1.6114689 15
-1.6819437 4.8626533 -1.605545 15
-1.8501562 5.3489714 -1.6229529 14
-2.0624623 5.9627681 -1.651706 11
-2.3048153 6.6634326 -1.6706326 16
-2.5253437 7.3010001 -1.6420866 73
-2.9142535 8.425375 -1.6796999 14
-3.1688666 9.2449675 -1.6056417 79
-3.5915363 10.478079 -1.2953126 7
-4.9040275 14.307188 -1.4110286 10
-5.9775028 17.438984 -1.2890997 11
-9.359292 27.305141 -1.3460748 11
-1.5500565 4.522191 -1.6153102 16
-1.6689777 4.8691368 -1.6061407 13
-1.8564075 5.4159513 -1.6416962 12
-2.0338845 5.9337287 -1.6420823 13
-2.287462 6.6735249 -1.6715548 16
-2.5239766 7.3635416 -1.6545614 54
-2.8951766 8.4464941 -1.6822921 14
-3.0862291 9.0917435 -1.5774328 100
-3.6994112 10.898121 -1.6174699 97
-3.6491835 10.750154 -1.3276025 7
-4.8551502 14.302821 -1.4091709 13
-6.2938414 18.541071 -1.36918 4
-9.3681307 27.597643 -1.3591181 11
-1.5311494 4.5106235 -1.6095482 16
-1.6514535 4.8650284 -1.6031621 13
-1.842182 5.426897 -1.64335 12
-2.0380352 6.0038619 -1.6598099 9
-2.2676489 6.6802831 -1.6715548 16
-2.5046306 7.3784084 -1.6562247 42
-2.872627 8.462492 -1.6837733 14
-3.1374726 9.3389845 -1.6186113 84
-4.0000253 11.906453 -1.4688418 14
-4.8057566 14.30479 -1.4078703 13
-8.7316837 25.990685 -1.278622 20
-1.5942096 4.7453156 -1.5620553 16
-1.8239003 5.4290123 -1.6422474 12
-2.0130031 5.9918947 -1.654745 11
-2.2447932 6.681839 -1.6701715 13
-2.5337722 7.5420136 -1.6911539 16
-2.8178625 8.3876343 -1.6671096 23
-3.1774497 9.5461979 -1.6529808 22
-4.7846603 14.374835 -1.4134438 13
-6.9133587 20.770206 -1.530736 10
-1.6159242 4.8548155 -1.5966086 13
-1.8081266 5.43226 -1.6416962 11
-1.9467696 5.8487935 -1.6137182 18
-2.2267408 6.6899276 -1.6706326 16
-2.4830468 7.4599624 -1.6711943 24
-2.8229833 8.4812536 -1.6841437 14
-3.1557209 9.5700293 -1.6555749 19
-3.6661911 11.11808 -1.6453046 19
-3.9689221 12.036141 -1.482083 28
-4.746366 14.393815 -1.4140012 13
-7.342669 22.267355 -1.6395562 16
-9.4303837 28.598553 -1.4043041 12
-1.4875757 4.5112171 -1.6050667 18
-1.5886075 4.8176064 -1.5829065 14
-1.7839171 5.4099011 -1.633427 12
-1.9146737 5.8064332 -1.6005491 12
-2.2043917 6.6850309 -1.6678659 16
-2.4897714 7.5504732 -1.6899064 14
-2.7974386 8.4835033 -1.6830326 17
-3.1204059 9.5525389 -1.6510354 16
-3.6474309 11.165927 -1.6508714 14
-4.0006804 12.247334 -1.506707 54
-4.7587137 14.567912 -1.4297929 10
-5.9999385 18.367689 -1.3511829 12
-8.4224501 25.783756 -1.2649264 10
-1.4755611 4.5171542 -1.6057068 18
-1.5781131 4.8310981 -1.5858853 12
-1.7729825 5.4276543 -1.6372859 11
-1.902658 5.8246312 -1.6040946 13
-2.1790688 6.6708117 -1.6627935 16
-2.4650333 7.5462384 -1.6874114 14
-2.7737389 8.4912825 -1.6830326 17
-3.0885618 9.5566616 -1.6500627 17
-3.5788381 11.07368 -1.6355624 14
-3.9273663 12.1521 -1.4934658 15
-4.7068024 14.56384 -1.427935 10
-7.222682 22.348503 -1.6423464 11
