# .PCD v0.7 - Point Cloud Data file format
VERSION 0.7
FIELDS x y z intensity
SIZE 4 4 4 4
TYPE F F F F
COUNT 1 1 1 1
WIDTH 1430
HEIGHT 1
VIEWPOINT 0 0 0 1 0 0 0
POINTS 1430
DATA ascii
-11.729856 3.8701954 0.86372471 2
-10.90584 3.5983164 1.0714157 1
-46.515686 15.347571 5.7280879 21
-9.5241919 3.1738141 0.46816346 7
-9.7138472 3.2370143 0.71598047 2
-60.528904 20.170477 7.4610562 46
-4.8935318 1.6449543 0.11986055 2
-9.5423613 3.2076523 0.46946779 7
-9.6807537 3.2541728 0.71416682 6
-10.955414 3.6826482 1.0782897 1
-5.1196189 1.7378759 0.125524 6
-9.5687466 3.2481511 0.47123799 5
-9.7220659 3.3001959 0.71793365 6
-12.0155 4.0787115 1.1838149 1
-5.1027861 1.7500594 -0.12524547 4
-4.9495888 1.6975187 0.12148531 13
-5.2554712 1.8024247 0.25909704 6
-9.9683113 3.4187477 0.73690736 6
-4.8768959 1.6868706 -0.24065001 8
-5.2361288 1.8111256 0.12863423 6
-4.9618592 1.7162584 0.2448425 7
-9.7707748 3.3796153 0.72295606 11
-9.7108812 3.3588986 0.95864487 2
-9.8958454 3.4228759 1.4716165 1
-5.1396995 1.7948639 -0.2538797 12
-5.0098743 1.749527 -0.12320291 3
-4.7959723 1.674829 0 4
-4.9513569 1.7290916 0.12176384 5
-4.951087 1.7289975 0.24456303 5
-9.9321098 3.4684491 0.73565179 9
-9.6519918 3.3706274 0.95381451 3
-9.7370672 3.4003372 1.2061089 5
-5.0567899 1.7837528 -0.25005984 21
-4.8817906 1.7220229 0.12018551 4
-5.3054848 1.8714784 0.26235789 3
-9.7198448 3.428618 0.72072393 9
-9.6751595 3.4128556 0.95715863 3
-9.8181305 3.4632876 1.2174916 5
-9.9008999 3.4924843 1.4755133 1
-5.0817738 1.8085388 0 4
-4.8129163 1.7128557 0.11860717 4
-9.0834332 3.2326784 0.44962329 3
-9.7045927 3.4537413 0.72030532 9
-9.8383646 3.501349 1.2212086 5
-9.9190979 3.5300808 1.4796885 1
-5.1460285 1.8486259 0 5
-4.875555 1.7514627 0.12027834 4
-9.1001244 3.2690694 0.45092762 3
-9.6116877 3.4528401 0.71416682 9
-9.662838 3.4712152 0.95790172 3
-9.7980204 3.5197773 1.2174916 2
-4.9345994 1.7872735 -0.24474934 9
-4.9517908 1.7935002 0.12227447 1
-5.9921474 2.1703093 0.29720229 3
-9.5294552 3.4514947 0.70872581 9
-9.4758472 3.4320781 0.94025224 3
-5.5774293 2.0388415 0.13787213 1
-5.966918 2.1812201 0.29627061 4
-9.5941257 3.5071537 0.71430629 2
-9.5441742 3.488894 0.94805515 3
-5.8204722 2.1484396 0.1440462 4
-5.9656582 2.2020304 0.29655012 4
-10.438423 3.8530076 0.77806371 2
-11.035158 4.0732732 1.0974253 2
-5.606092 2.0882277 0.13889341 6
-9.4263468 3.5112443 0.46909517 2
-12.04044 4.4849744 0.89846343 2
-9.4825506 3.5321796 1.1833434 2
-4.8021231 1.8030872 -0.35868779 4
-4.6795707 1.7570716 -0.23310348 28
-5.8586287 2.1997809 0 3
-5.5145001 2.0705683 0.13675801 4
-5.7755852 2.1686001 0.28769925 3
-9.589304 3.600564 0.71625948 2
-10.395164 3.9031458 1.035931 3
-4.6904068 1.7770358 -0.35073555 4
-4.8331375 1.8311118 -0.24102268 14
-4.9810586 1.8871539 0.12366712 4
-9.3972492 3.5602984 0.4686293 3
-9.4796972 3.5915353 0.70886528 6
-4.7135344 1.8027509 -0.23533949 4
-4.891067 1.8706505 0.12157816 2
-9.3878832 3.5905149 0.46872246 5
-9.4646406 3.6198716 0.70858628 6
-9.41325 3.6002166 0.94025224 3
-9.399415 3.5949252 1.176839 5
-9.5674543 3.6591942 1.4396067 1
-4.69871 1.8111976 -0.35213068 3
-4.9178681 1.8956758 0.12236732 2
-9.4958916 3.6603527 0.474592 1
-9.3862505 3.6180897 0.70342427 4
-9.392642 3.6205535 0.93913758 3
-9.3973846 3.6223814 1.1777681 5
-9.53936 3.6771085 1.4368232 1
-5.4936385 2.1363585 0.13685086 3
-9.3490639 3.6356509 0.46779084 3
-9.4431057 3.6722219 0.94526845 3
-9.3051338 3.6185672 1.1675469 5
-5.6395202 2.2135108 0.14065742 1
-9.4791193 3.7205527 0.71207404 2
-9.6317196 3.7804482 0.96533304 2
-9.2974186 3.6492348 1.1680115 4
-4.7834311 1.8919632 0 1
-9.4059954 3.7202997 0.47170383 3
-9.4433737 3.7350836 0.71012092 2
-9.6514187 3.8173704 0.96830565 2
-9.4688606 3.7451644 1.1907771 1
-4.8183289 1.9232922 0 3
-9.440649 3.7683454 0.474033 3
-9.1740313 3.6619215 0.6907286 6
-9.585743 3.826261 0.96291786 3
-9.4441338 3.7697363 1.1891509 2
-5.0374441 2.0270817 0 1
-9.5561199 3.8454099 0.48036835 2
-9.2174454 3.709126 0.69477445 4
-9.3404026 3.7586045 0.93932331 2
-9.4667406 3.8094432 1.1933323 1
-4.7135754 1.9120681 -0.11809654 2
-9.5971794 3.8931086 0.482977 2
-9.3105841 3.7768507 0.70258719 4
-9.232069 3.7450008 0.9294768 3
-4.6603971 1.9075686 -0.58888406 1
-4.7935019 1.9620502 -0.48322389 2
-4.7686105 1.9518617 -0.11962844 1
-4.9512882 2.0266345 0 2
-9.289072 3.8021526 0.4680703 2
-9.348527 3.8264883 0.70635402 2
-9.275547 3.7966166 0.93505037 1
-4.6902795 1.9341508 -0.59329778 1
-5.0755396 2.0930221 -0.5122062 2
-5.263813 2.1706612 -0.26552555 4
-4.9052887 2.022815 0 1
-9.1534939 3.7746658 0.46173498 2
-4.7482166 1.9745471 -0.23981151 3
-4.8757911 2.0275989 -0.12259942 1
-9.1883707 3.8209865 0.46406415 2
-4.9712086 2.0846007 -0.50291693 2
-4.719367 1.9789946 -0.3578507 1
-4.9210501 2.0635674 -0.24884871 1
-9.3501787 3.9208553 0.47282183 1
-9.3890562 3.9371579 0.71193457 2
-4.812768 2.0349731 -0.48749691 2
-4.7281756 1.999205 -0.35896683 1
-5.1688385 2.1855297 -0.2617057 3
-5.060246 2.1396139 0 1
-9.1324129 3.8614399 0.46238714 1
-9.4159231 3.9813159 0.71486431 2
-4.739284 2.0195215 -0.48062292 2
-4.8088393 2.0491607 -0.36552393 1
-5.4659724 2.3291807 -0.27707824 4
-9.1748934 3.9096401 0.46508896 1
-4.7936497 2.059514 -0.48675379 2
-5.7196913 2.4573729 -0.29030794 3
-5.9528112 2.5575292 0.30214015 1
-5.4003158 2.3402832 -0.27446958 2
-10.308048 4.4991918 1.0493073 1
-5.9631815 2.6238618 0.30381715 2
-10.281302 4.52388 0.78545785 2
-10.281896 4.5241408 1.0480069 1
-5.6176519 2.490572 -0.42969987 1
-4.7976341 2.1270192 0 1
-9.750639 4.3229213 0.7458362 2
-4.7733812 2.1332374 -0.61141735 1
-4.7766938 2.1347179 0 1
-5.7072058 2.5505664 0.29151911 1
-5.285327 2.3808665 -0.5408169 2
-4.7794566 2.1529887 0 1
-4.7617617 2.1450176 0.12125321 2
-9.3196783 4.1982098 0.95362872 1
-4.7629123 2.1635599 -0.48805428 2
-5.5857344 2.537328 -0.42900231 2
-4.764102 2.1641004 -0.12148531 1
-4.7763114 2.1696465 0 1
-4.7222319 2.1450808 0.12041761 1
-9.7361393 4.4226556 0.9976595 2
-4.737947 2.168201 -0.6093266 1
-4.7344041 2.1665797 -0.12088183 1
-4.7193127 2.1596735 0 2
-4.7144051 2.1574278 0.12037119 1
-9.0346546 4.13448 0.69477445 4
-9.7128859 4.4448557 0.99654478 1
-4.542089 2.094893 -0.58493495 1
-4.6234999 2.132441 -0.35603702 3
-4.6716704 2.1546583 -0.11944276 2
-4.6565838 2.1477001 0 3
-4.6789327 2.1580079 0.11962844 1
-9.2286768 4.2564316 0.47393984 5
-8.9933596 4.1478987 0.69254225 4
-11.511559 5.3093376 1.1827002 1
-4.6194658 2.1452639 -0.59562081 5
-4.6877747 2.1769862 -0.11999982 2
-9.9685478 4.6293592 0.25517949 3
-9.2972288 4.3176007 0.47803915 3
-8.9625654 4.1621842 0.69100761 6
-4.5551348 2.1328111 -0.58818716 1
-4.6060224 2.1566377 -0.47449204 2
-4.7080746 2.2044206 -0.12069614 1
-10.215418 4.7830763 0.52602011 1
-9.0163002 4.2216234 0.69616961 2
-4.7026439 2.2179105 -0.4850817 5
-4.6783905 2.2064722 -0.12009266 1
-8.2988539 3.9139931 0.2130287 2
-9.1722937 4.3259339 0.70914429 6
-50.376373 23.759039 10.494051 45
-4.6812658 2.2258317 -0.48359546 2
-4.5477977 2.1623707 -0.35213068 3
-5.5887494 2.6573186 -0.14367482 1
-7.2555914 3.449863 0 2
-9.611927 4.5702453 0.24710216 3
-5.295505 2.5178878 0.27344474 1
-9.659565 4.592896 0.74792886 4
-50.546436 24.033642 10.545153 47
-4.7813959 2.2888098 -0.49455673 2
-4.6464953 2.2242343 -0.36022243 3
-4.5748591 2.1899426 0 1
-7.2067089 3.4497845 0.1855007 2
-5.245646 2.5110421 0.27120873 2
-9.1364279 4.3735232 0.70830721 6
-10.254315 4.9086456 1.0606402 5
-49.141491 23.523577 8.9509983 32
-50.62693 24.234642 10.575148 47
-4.5159512 2.178236 -0.58632874 7
-4.5862551 2.2121465 -0.47504941 5
-5.123271 2.4711723 -0.39775139 3
-5.4315481 2.6198676 -0.14000753 2
-5.2579665 2.5361416 0.27223358 2
-9.1593523 4.4179463 0.71109748 6
-9.8827782 4.7668858 1.0236692 3
-4.5519609 2.2132595 -0.59190398 7
-4.4825749 2.1795225 -0.46501705 5
-6.4504247 3.1363328 -0.50154907 2
-8.6438198 4.2028074 -0.2231486 1
-7.1711154 3.486748 0.18512931 2
-5.2409892 2.5482798 0.27176774 3
-9.1400452 4.4440827 0.71067899 4
-9.9501343 4.8379655 1.0322152 2
-49.44746 24.0424 10.35926 41
-4.6645408 2.2831166 -0.36315221 1
-7.8857017 3.8597531 -0.20383722 1
-5.1304107 2.5111423 0 1
-5.1164575 2.5043128 0.13225512 1
-9.1749706 4.4908013 0.71430629 6
-48.44865 23.713783 8.8621569 31
-4.6667914 2.3014073 -0.48545331 2
-7.8006907 3.8468759 -0.20193394 3
-7.7902369 3.8417208 0 1
-5.1287298 2.5292103 0.13276576 1
-9.1848679 4.5294766 0.71612 6
-10.38553 5.1215782 1.0803332 5
-48.332058 23.83474 8.8537264 30
-5.175766 2.5726507 -0.40416899 4
-5.0092382 2.489877 -0.26086721 1
-4.8897882 2.4305034 -0.12677738 1
-5.149004 2.5593483 0 1
-9.0148392 4.4808888 0.46946779 3
-10.1425 5.0414009 0.79201496 2
-10.224949 5.0823827 1.0652848 3
-48.108494 23.912663 8.8264904 30
-51.404083 25.55076 10.815475 54
-4.5284014 2.2666659 -0.47244844 2
-4.9343777 2.4698751 -0.25732687 1
-4.8239784 2.4146154 -0.12524547 4
-7.6045527 3.8064163 0 1
-8.8307858 4.4202003 0.46052381 5
-10.40492 5.2081242 0.81363952 4
-10.545495 5.2784886 1.1002122 1
-47.896534 23.974342 7.527595 29
-48.262131 24.157339 8.8670206 31
-50.61721 25.336163 10.664762 50
-5.1341782 2.5889614 0 1
-7.589395 3.8270295 0.19733821 2
-8.8354702 4.4553757 0.46145546 6
-10.391203 5.2398696 0.813779 4
-10.753825 5.4227257 1.123621 1
-47.846416 24.127041 7.5309358 29
-7.5073657 3.8119986 -0.19548132 5
-5.075213 2.5770297 0 2
-14.087389 7.1531224 1.104803 4
-10.783029 5.475275 1.1282656 1
-47.945175 24.345016 10.131153 35
-4.6099148 2.356982 -0.4830381 5
-4.8407063 2.4749825 -0.38017279 4
-4.8988442 2.5047076 -0.25658154 1
-7.4147992 3.7910786 -0.19334592 2
-5.050189 2.582088 0 2
-5.0826535 2.5986865 0.13253364 1
-9.385004 4.7984157 0.49154836 3
-14.035383 7.1760869 1.1022918 8
-9.1276312 4.6668248 0.95641547 2
-48.102394 24.594053 7.5927286 30
-47.864754 24.472549 10.128561 35
-4.5505729 2.3447039 -0.59864074 7
-4.4679532 2.3021338 -0.46891853 5
-5.0033684 2.5780089 -0.13067678 4
-5.0687203 2.6116817 0 3
-9.8912058 5.0964904 0.25833616 6
-9.3663311 4.826046 0.49136204 3
-10.2298 5.2709522 0.80471069 11
-50.057358 25.792288 5.2535968 35
-49.407902 25.457653 9.1316013 34
-47.826069 24.642607 10.136707 35
-4.5885053 2.3794703 -0.60444832 15
-4.4460011 2.3055716 -0.46724647 5
-4.9978437 2.591742 -0.26254421 1
-4.9948273 2.5901778 -0.13063036 4
-9.2945871 4.8199129 0 12
-9.9435053 5.1564236 0.26005375 3
-9.5434341 4.9489574 0.50133085 2
-10.494037 5.4419136 0.8266142 9
-10.385788 5.3857789 1.0914804 2
-49.758579 25.803408 7.8774762 35
-49.360359 25.596901 9.1351681 34
-4.9400988 2.5815229 -0.25993556 2
-5.8797994 3.0725775 -0.15402684 4
-7.0672326 3.6930885 0 3
-9.721693 5.0802169 0.25466886 9
-10.835843 5.6624327 0.85493535 2
-11.519534 6.0197058 1.2126114 6
-4.6252294 2.4334507 -0.24372451 2
-5.8835826 3.0955024 -0.15435179 4
-5.0709796 2.6679714 0 4
-9.4933596 4.994698 0.24905185 6
-10.852315 5.7096791 0.57185823 3
-10.894146 5.7316871 0.86079484 2
-13.247377 6.9697819 1.3965374 4
-47.950066 25.227749 8.9017134 31
-47.664021 25.077253 10.147447 35
-4.4607654 2.363848 -0.70950449 9
-4.5021992 2.3858044 -0.59585309 7
-4.6780081 2.4789691 -0.24689218 3
-5.0069084 2.6532598 -0.13155879 1
-5.0135593 2.6567843 0 3
-5.0793443 2.6916449 0.13346209 4
-9.9879885 5.2928329 0.52713811 1
-10.889432 5.7705255 0.86177152 7
-13.912868 7.3727045 1.4689932 5
-48.729481 25.822716 9.0605927 33
-47.660606 25.256298 10.162629 36
-4.4253521 2.3619246 -0.46798959 5
-4.6097555 2.4603455 -0.36538443 4
-4.6177573 2.4646163 -0.24409717 1
-4.974319 2.6549225 -0.13090889 2
-4.9809532 2.6584632 0 3
-9.4018164 5.017992 0.24742711 6
-9.2531414 4.9386401 0.48912606 5
-10.724414 5.723896 0.85005242 7
-10.791957 5.7599459 1.1412704 1
-50.402431 26.901079 9.3864546 37
-4.5828762 2.4624677 -0.60839742 11
-4.669651 2.5090933 -0.37068591 8
-4.8906765 2.6278546 -0.25891072 2
-5.9039011 3.1722798 -0.15560518 2
-4.9893656 2.6808822 0 2
-9.6096907 5.1634722 0.25327623 9
-9.1706791 4.9275823 0.48549253 5
-10.766384 5.7849855 0.85465634 2
-10.747764 5.7749805 1.1382979 1
-48.140324 25.866724 6.3908443 31
-47.590755 25.571428 8.8760996 31
-52.050411 27.96769 11.132826 63
-4.641499 2.5127907 -0.61722481 16
-4.6336732 2.508554 -0.36845368 5
-5.6115055 3.0379279 -0.29757497 1
-7.2196832 3.9085548 -0.19060707 4
-4.9826775 2.6974962 0 2
-5.0165014 2.7158077 0.13244081 3
-9.3150282 5.0429215 0.49397069 3
-10.73763 5.8130822 0.85381925 7
-47.969727 25.969603 6.3789968 30
-47.428612 25.676657 8.8608599 31
-4.6506042 2.5334866 -0.61931556 22
-4.7111864 2.5664897 -0.37515032 13
-7.4228396 4.0437031 -0.39418903 3
-4.8741751 2.6552801 -0.12886634 4
-4.9896483 2.7181859 0 2
-5.0392232 2.7451925 0.13322997 1
-9.9737263 5.4333372 0.52965361 4
-9.616848 5.2389221 0.76578659 2
-48.134888 26.222202 5.1138873 32
-47.927734 26.109354 6.3824811 30
-51.746651 28.189766 8.2816353 41
-47.371624 25.806402 8.8628054 31
-48.835289 26.603756 10.477758 45
-4.6604824 2.556829 -0.6216386 8
-4.5864058 2.5161889 -0.48805428 11
-4.7840133 2.6246004 -0.38156793 6
-4.8465385 2.6589029 -0.25779271 3
-4.8820519 2.6783862 -0.12928413 2
-4.9482455 2.7147012 0 4
-7.5290532 4.1305809 0.19938074 5
-10.091032 5.5361309 0.80485016 7
-9.3840628 5.1482744 0.99858844 3
-49.040833 26.90473 7.8613324 34
-50.46032 27.683487 10.843989 55
-4.6141787 2.5503161 -0.61652792 12
-4.8294497 2.6692991 -0.51480716 13
-4.8591447 2.6857119 -0.25891072 4
-4.9033637 2.7101521 -0.13007329 4
-4.9449444 2.7331345 0 4
-7.5247903 4.1590486 0.19961286 5
-10.794755 5.9664001 0.86246902 5
-48.057468 26.561981 5.1228051 32
-47.445721 26.223862 6.3395052 30
-48.911003 27.033743 7.8540955 34
-47.608646 26.313913 8.9370565 32
-4.6074862 2.5623875 -0.61652792 12
-4.8067818 2.673223 -0.51313508 10
-4.8945041 2.7220085 -0.13002688 4
-7.4984226 4.1701407 0 4
-5.0709929 2.8201604 0.13471547 4
-10.085135 5.6087036 0.80694288 7
-10.55334 5.8690891 1.1265935 1
-47.330029 26.32192 6.3332334 30
-48.81237 27.146303 7.8496423 34
-47.489574 26.410648 8.9276533 31
-4.6015964 2.5770183 -0.61676025 14
-4.7380185 2.6534181 -0.50663269 13
-4.8079281 2.6925693 -0.38533476 8
-4.8580136 2.7206185 -0.25965604 4
-4.9143186 2.752151 -0.13076963 4
-4.8388634 2.7098939 0 3
-5.0486465 2.8273783 0.13434409 3
-8.1001759 4.5363169 0.43294641 7
-10.07367 5.6415272 0.80736142 7
-47.402771 26.546829 5.0687418 31
-47.30545 26.492329 6.3404346 30
-48.73679 27.293917 7.8504767 34
-47.464378 26.581333 8.9377041 32
-47.560558 26.635195 10.270387 39
-4.6021285 2.5963411 -0.61792177 12
-4.7643471 2.6878583 -0.51034838 11
-4.8307238 2.7253056 -0.38784599 5
-4.8564029 2.7397928 -0.26002872 5
-5.4907737 3.0976799 -0.14636728 6
-5.0693445 2.859926 0.13513327 1
-9.4848623 5.3509889 0.50785255 9
-10.095865 5.6956925 0.81057024 11
-10.77398 6.0782585 1.1540896 9
-47.348289 26.712055 6.3573923 30
-51.890285 29.274469 8.3732109 42
-47.747116 26.937057 10.328896 40
-4.8487329 2.7533441 -0.26002872 4
-4.7744532 2.7111645 -0.1274737 2
-5.2331395 2.9716287 0 3
-7.6971974 4.3708396 0.20550838 7
-9.2318764 5.2423038 0.4950887 2
-47.304607 26.861834 6.3615742 30
-47.95224 27.229591 7.7499938 33
-57.535812 32.671604 10.870505 49
-47.683666 27.077084 10.331488 40
-4.6761808 2.6737401 -0.50254542 8
-4.8582463 2.7778416 -0.39133382 9
-5.140583 2.9392755 -0.27614659 11
-5.6377378 3.2235382 -0.15077734 4
-5.1496415 2.9444551 0 4
-7.58005 4.3341107 0.2027231 7
-7.5721269 4.3295803 0.4067665 3
-10.806212 6.1787615 1.1613351 3
-47.495438 27.156878 6.3980455 31
-47.995029 27.442533 7.7700348 33
-4.7710066 2.7445576 -0.51350665 7
-4.8855457 2.810447 -0.39412406 9
-7.3173704 4.209373 -0.19599196 1
-5.0413661 2.900084 0 3
-7.5513458 4.3439689 0.20225888 7
-9.2457476 5.318686 0.49741787 8
-9.5358934 5.4855952 0.76927441 9
-12.738511 7.3279252 1.7185658 2
-47.850922 27.526604 7.7583442 33
-48.185902 27.719305 10.473684 45
-4.8737316 2.822932 -0.39384505 10
-4.8440247 2.8057253 -0.26105353 5
-5.223433 3.0254838 -0.14014679 4
-7.5349617 4.3643527 0.20216604 2
-9.4771395 5.4892888 0.51074076 11
-9.5005827 5.5028677 0.76773977 7
-10.506166 6.0853152 1.1327243 4
-47.291451 27.391853 6.3910766 31
-47.739895 27.6516 7.7536125 33
-48.030304 27.819807 10.457761 44
-4.8325896 2.8182826 -0.39119431 9
-4.8512115 2.8291426 -0.26189205 4
-4.9398079 2.8808105 -0.13276576 5
-5.015429 2.9249115 0 4
-7.5565243 4.4068341 0.20309447 2
-9.3037643 5.4257946 0.50226253 4
-10.119943 5.9017754 1.0929667 3
-48.234207 28.129354 7.847415 34
-4.8603358 2.8538232 -0.39412406 5
-4.901371 2.8779178 -0.26505971 6
-4.9088244 2.8822939 -0.13216227 4
-5.1188326 3.0056038 0 3
-5.729548 3.3641949 0.15425895 1
-8.3280239 4.8899312 0.45036861 3
-10.021754 5.8844323 0.8126629 7
-10.535126 6.1858664 1.1397841 4
-48.418674 28.429792 7.8911157 35
-4.944591 2.9230571 -0.40165779 5
-4.9891195 2.9493806 -0.27027705 3
-4.9553299 2.9294055 -0.13364777 4
-5.4163485 3.2019427 0 2
-8.1705275 4.8301101 0.2203633 8
-8.289402 4.9003844 0.44906428 5
-9.9733372 5.895864 0.8101517 9
-10.998423 6.5018554 1.1919894 4
-48.357979 28.587427 7.8950124 35
-4.6396313 2.7613864 -0.63139522 8
-4.929038 2.9336336 -0.40109974 4
-4.8910742 2.9110386 -0.26543239 4
-4.9844151 2.9665926 -0.13466904 4
-7.8833766 4.691978 0 1
-8.0461969 4.7888842 0.21739231 8
-8.2456408 4.907588 0.44748047 3
-9.7689247 5.8142071 0.79494482 2
-4.6301985 2.7733121 -0.63116294 8
-4.870513 2.9172516 -0.52966982 7
-4.9122682 2.9422612 -0.40040216 4
-4.893209 2.9308453 -0.26599139 5
-5.6654768 3.3934042 0 1
-7.945312 4.7589388 0.21502483 8
-9.6910324 5.8045588 0.7899223 7
-11.053041 6.6203499 1.2020217 3
-51.526932 30.862665 7.0238657 42
-4.6491671 2.8034503 -0.63487971 8
-4.831141 2.9131806 -0.52632576 7
-4.8847232 2.9454908 -0.39886752 4
-4.9135761 2.9628892 -0.26757523 4
-5.3336687 3.2162051 -0.14460327 4
-7.9076028 4.7682891 0 3
-5.1333346 3.0954037 0.13917194 1
-8.6398191 5.2098155 0.47049266 7
-9.6344709 5.8095918 0.78671354 7
-11.231166 6.7723999 1.2235727 1
-4.5326314 2.750469 -0.62001246 8
-4.8229866 2.9266608 -0.52632576 5
-4.8065457 2.9166842 -0.39314747 5
-5.1554389 3.1283977 -0.14000753 2
-7.7215638 4.6855607 0 4
-5.1075768 3.0993543 0.13870773 1
-9.1427498 5.5479579 0.4987222 2
-9.713726 5.8944349 0.79452622 4
-10.87002 6.5960913 1.1862301 4
-4.5985489 2.8102717 -0.63023371 6
-4.764493 2.9116836 -0.52093804 7
-4.7441893 2.8992758 -0.25928339 3
-5.1507044 3.1477058 -0.14014679 2
-7.7324047 4.7254381 0 4
-5.0585752 3.0914037 0.13764003 3
-8.5865908 5.2474494 0.46928149 2
-10.064583 6.150682 0.82480055 7
-43.391888 26.517712 4.7443628 24
-4.5421 2.7921331 -0.62349695 8
-4.4514918 2.7364345 -0.48749691 8
-4.675312 2.8740218 -0.25592938 4
-7.433466 4.5695224 -0.20258383 4
-7.7080803 4.7383342 0 1
-5.0283208 3.0910244 0.13703655 1
-8.611969 5.2939754 0.47142434 2
-9.2122078 5.6629558 0.75616014 2
-43.695534 26.860649 4.7852359 25
-4.2475395 2.6284571 -0.82065409 12
-4.6076083 2.8512747 -0.50551796 8
-4.6786556 2.8952401 -0.25658154 4
-7.4946852 4.6378522 -0.20462637 4
-4.9830642 3.0836139 0 1
-5.0038247 3.0964608 0.13661875 1
-9.2604761 5.730557 0.50785255 1
-10.522076 6.5112581 0.86525929 5
-10.984768 6.7975812 1.20518 4
-4.6881886 2.9215462 -0.25760636 4
-4.9126205 3.0614061 -0.13439052 1
-8.3834095 5.2243032 0 3
-5.0874043 3.1703262 0.13917194 1
-9.8409567 6.1326056 0.54074049 2
-9.4957762 5.9174991 0.78238863 2
-10.95153 6.8246837 1.2038796 1
-49.678146 30.958015 8.2265224 40
-50.786873 31.648941 11.274652 63
-4.2590761 2.6696417 -0.70644271 10
-4.7041583 2.9486246 -0.5179655 7
-4.6353149 2.905473 -0.38254449 4
-4.743156 2.973069 -0.26105353 4
-4.782609 2.9977987 -0.13104816 3
-4.6873045 2.9380605 0 3
-8.4064131 5.2692442 0.23034395 3
-9.6674395 6.0596709 0.53207594 4
-9.500536 5.9550538 0.7840628 2
-9.6479111 6.0474305 1.0623122 3
-10.711535 6.7141228 1.4783661 12
-49.583496 31.079552 8.2242956 40
-4.3891954 2.770447 -0.852754 5
-4.7285504 2.984647 -0.52168113 7
-4.6177287 2.9146967 -0.38184696 4
-4.8300905 3.0487385 -0.26636407 4
-4.7461143 2.9957333 -0.13030541 4
-4.6983466 2.9655824 0 3
-8.3931999 5.2977624 0.23043679 3
-9.611187 6.0665522 0.53002626 4
-9.2017145 5.8080945 0.76090366 6
-10.669551 6.7345886 1.1771268 4
-4.3426442 2.7591152 -0.84529644 9
-4.723177 3.0008881 -0.65439308 6
-4.6137848 2.9313853 -0.50997674 8
-4.6528444 2.956202 -0.38547429 6
-4.8395724 3.0748405 -0.26738888 4
-4.7895222 3.0430408 -0.13174447 4
-8.4894285 5.3937902 0 2
-8.4263859 5.3537359 0.231783 3
-8.8866024 5.6461358 0.49098939 2
-10.558573 6.7084284 0.8747462 2
-10.743648 6.8260164 1.1875306 4
-50.513012 32.093632 6.9985442 41
-50.530319 32.10463 11.279467 62
-4.6076617 2.9455891 -0.63952577 6
-4.5871243 2.9324598 -0.50793314 8
-4.750473 3.0368853 -0.3942636 5
-4.8376999 3.0926478 -0.26776156 4
-4.7961674 3.0660968 -0.13216227 4
-7.0790758 4.525516 0 1
-8.4703646 5.4149404 0.23340778 3
-8.7849531 5.6160502 0.48623785 3
-9.090785 5.8115625 0.75448602 2
-9.8806057 6.3164802 1.0940813 5
-4.5370932 2.9194756 -0.6309306 6
-4.5315137 2.9158854 -0.5027312 8
-4.7733192 3.0714796 -0.39691433 5
-4.7075377 3.0291512 -0.26105353 5
-5.0762558 3.2664096 -0.14014679 4
-5.4425936 3.5021365 0 2
-8.6610775 5.5731287 0.23911762 3
-8.4910412 5.4637156 0.47086534 5
-9.2060471 5.9237995 0.76550758 6
-10.658938 6.8586888 1.1825144 1
-4.5439305 2.9418509 -0.63302135 6
-4.5032949 2.9155424 -0.50050181 8
-4.7980056 3.1063454 -0.26655039 6
-5.3203092 3.4444973 0 5
-8.7411489 5.6592326 0.24176365 3
-8.5512161 5.5362654 0.47505784 2
-9.2112398 5.9635806 0.76732123 2
-9.9811325 6.4620275 1.1093155 1
-10.536916 6.8218551 1.4679126 5
-4.342618 2.828758 -0.60607439 7
-4.3916836 2.860719 -0.48898321 8
-4.3414993 2.8280292 -0.36231512 11
-4.812748 3.1349981 -0.26785475 4
-4.9674635 3.235779 -0.13764003 4
-5.355916 3.4888148 0 5
-8.6298151 5.6214156 0.23911762 3
-9.1149263 5.9374142 0.50729358 1
-9.9785938 6.5000029 0.83275276 2
-11.429723 7.44526 1.2726196 1
-49.624317 32.325012 8.3233871 41
-4.5463262 2.9818361 -0.635809 6
-4.3177342 2.8319075 -0.48173761 16
-4.4944201 2.9477918 -0.37584791 9
-4.7978644 3.1468146 -0.26757523 4
-5.2465181 3.4410768 -0.14567097 4
-5.1827092 3.3992257 0 5
-9.1120214 5.9763761 0.2529977 3
-9.0026779 5.9046597 0.50207621 2
-9.8980665 6.4919257 0.8277303 4
-10.057508 6.596499 1.1221347 4
-49.606983 32.536137 8.3375826 42
-4.4268942 2.9212162 -0.62024474 8
-4.5009499 2.970084 -0.50310278 11
-4.5094838 2.9757154 -0.37780106 8
-4.8040652 3.1701035 -0.26841372 6
-5.021605 3.3136535 -0.13968258 3
-5.103085 3.3674207 0 3
-5.1083856 3.3709183 0.14209649 3
-9.0261736 5.9561858 0.50431222 4
-9.4119663 6.210762 0.78852719 7
-10.044032 6.6278496 1.122692 4
-4.4959555 2.9848444 -0.5034743 11
-4.627481 3.0721638 -0.38840404 8
-4.8417978 3.2144475 -0.27102241 4
-4.9506979 3.2867458 -0.13796498 3
-8.7793589 5.8285766 0 2
-5.0772967 3.3707945 0.14149301 3
-8.7198963 5.7890997 0.48810118 3
-9.9464245 6.6033864 0.83484548 4
-10.060324 6.6790032 1.1265935 1
-10.782006 7.1581249 1.5134437 3
-4.5289946 3.0261781 -0.89490533 9
-4.6949 3.1370325 -0.79356509 9
-4.4595456 2.9797738 -0.62721378 8
-4.6725235 3.122081 -0.5242821 10
-4.8472719 3.2388442 -0.40765685 9
-4.8006768 3.2077105 -0.26925224 5
-4.9109988 3.2814252 -0.1371294 4
-6.7964325 4.5412321 0 1
-8.3806181 5.5997515 0.23401126 3
-8.6910534 5.8071771 0.48744902 1
-9.2864571 6.2050138 0.78099346 2
-12.171411 8.132678 1.3656974 2
-4.4850788 3.0172572 -0.88809621 4
-4.5404129 3.0544825 -0.76907063 21
-4.7748604 3.2122028 -0.67297715 6
-4.6610403 3.1356323 -0.52409631 10
-4.8287964 3.2484872 -0.40695927 8
-4.7905765 3.2227755 -0.26925224 5
-4.8608503 3.270051 -0.13601527 4
-4.4124522 2.968399 0 4
-5.0333862 3.3861213 0.14084311 4
-8.8932333 5.9827652 0.49984023 1
-10.005226 6.7308388 0.84321624 2
-42.195789 28.386471 5.9471483 23
-4.6177397 3.1240942 -0.91598094 6
-4.4585829 3.0164182 -0.75654507 9
-4.6726527 3.1612451 -0.65973604 9
-4.6313739 3.1333184 -0.52168113 10
-4.8417573 3.2756517 -0.40877292 11
-4.9267955 3.3331835 -0.13810425 4
-4.4361396 3.0012343 0 4
-5.0261593 3.4004073 0.14088954 1
-8.9387646 6.0474486 0.50328743 1
-10.106548 6.8375034 0.85326117 5
-12.218383 8.2662477 1.3762871 2
-42.172333 28.531349 5.95435 23
-4.4795761 3.0500348 -0.8903659 4
-4.7272897 3.2186973 -0.66879576 9
-4.6352248 3.1560125 -0.52316743 10
-4.8435607 3.2978635 -0.40974951 16
-4.6569052 3.1707742 -0.26273057 8
-4.8160667 3.2791436 -0.13527252 4
-4.4321742 3.0177603 0 4
-8.3380432 5.6771722 0.23419693 3
-9.4888573 6.4607339 0.53533679 2
-10.082918 6.8652153 0.85298216 5
-10.926357 7.4394922 1.2332335 1
-4.2420788 2.9078748 -0.84497219 4
-4.7368164 3.247009 -0.67158335 9
-4.6384277 3.1795652 -0.52465367 10
-4.6834259 3.2104108 -0.39705387 10
-4.5645294 3.1289091 -0.25807223 8
-4.8007951 3.2908654 -0.13513327 4
-4.4177237 3.0282762 0 4
-8.2855349 5.6795964 0.23322208 3
-8.580327 5.8816719 0.48511985 7
-9.7650919 6.6938081 0.82786983 2
-10.88815 7.4636464 1.2315613 5
-4.5968013 3.1687527 -0.91727799 5
-4.5397129 3.1293995 -0.77491587 4
-4.679234 3.2255766 -0.66461432 9
-4.6809134 3.2267344 -0.53041297 10
-4.6635065 3.214735 -0.39607728 8
-4.4855924 3.092092 -0.25406605 4
-8.811327 6.073988 0 2
-8.4895849 5.8521986 0.23939615 3
-8.439888 5.8179407 0.47803915 1
-9.9331532 6.8473063 0.84363478 7
-10.893167 7.5090804 1.2343482 3
-4.2412972 2.9236898 -0.97056735 3
-4.7049804 3.2651775 -0.66972494 9
-4.6396694 3.2198524 -0.52688313 10
-4.7550073 3.299895 -0.40472704 5
-4.3970728 3.0514948 -0.24959403 6
-4.4055934 3.0574079 -0.12450272 4
-4.3755617 3.0365665 0 3
-8.4744434 5.8811212 0.239489 3
-9.0403423 6.2738457 0.51316309 5
-9.891923 6.8648286 0.84196067 2
-4.2789168 2.9694965 -0.98130614 5
-4.6040707 3.2154279 -0.65671611 9
-4.6088719 3.218781 -0.52446795 13
-4.4376822 3.0992243 -0.37849861 10
-4.3683448 3.0507996 -0.24847601 8
-4.3850284 3.0624514 -0.12417777 4
-7.4065461 5.1726432 0 3
-9.2634745 6.4695001 0.26232845 6
-11.710052 8.1781597 0.99877322 3
-12.845414 8.9710836 1.4617476 2
-4.3224382 3.0187392 -1.1206441 6
-4.2974811 3.0013092 -0.98760134 6
-4.4233198 3.1064558 -0.63209218 8
-4.5287247 3.1804807 -0.51629341 26
-4.3865008 3.0805984 -0.24996668 9
-4.8073311 3.3761435 -0.13638665 4
-7.3929772 5.192018 0 4
-9.1025133 6.3926091 0.25824332 3
-9.01824 6.3334255 0.51390839 4
-9.5121908 6.6803222 0.81280243 4
-12.790918 8.9829416 1.4582177 2
-4.3637943 3.0840247 -0.6248908 8
-4.3859186 3.0996604 -0.50105911 33
-4.7575693 3.3623173 -0.40737781 4
-4.4262867 3.12819 -0.25276169 13
-4.7515736 3.3580801 -0.13508683 13
-7.2844429 5.1481347 0 4
-7.9290867 5.603724 0.22542326 2
-9.0728283 6.4120407 0.51810092 5
-9.5737944 6.766088 0.81977808 7
-10.494006 7.4164295 1.1988634 1
-4.1936793 2.9637992 -1.0915365 4
-4.3589401 3.1011736 -0.6255877 10
-4.666605 3.3200622 -0.53431445 10
-4.3113017 3.067281 -0.36998835 9
-4.3969035 3.1281826 -0.25164372 8
-4.7328544 3.3671954 -0.13485473 4
-8.0146132 5.7020068 0 5
-8.1460485 5.795517 0.23210795 15
-9.6370478 6.8562899 0.55154783 4
-9.3395271 6.6446185 0.80150187 7
-11.233278 7.99193 1.2861818 2
-4.292109 3.0717142 -0.61722481 8
-4.6103544 3.2994711 -0.52892673 10
-4.2897396 3.0700183 -0.36887223 7
-4.3962741 3.1462615 -0.25210953 15
-7.1412463 5.1107435 -0.20388363 3
-7.9108338 5.6615105 0 7
-7.9103284 5.6611485 0.22584105 5
-8.2141762 5.878602 0.47105166 5
-9.2171001 6.5963597 0.79257303 4
-4.2332325 3.0486121 -0.73316395 6
-4.5215464 3.2562449 -0.65160543 12
-4.3258362 3.1153021 -0.49734345 11
-4.5655541 3.2879376 -0.39342651 10
-4.3626018 3.1417792 -0.25071204 4
-5.5554638 4.000833 -0.15894754 4
-7.9167218 5.7013206 0 5
-7.9080987 5.6951103 0.22625884 5
-7.88381 5.677619 0.45307046 3
-9.3917656 6.7635908 0.80931461 7
-11.940084 8.5987921 1.3727572 2
-4.0242138 2.9151857 -0.69837064 13
-4.3676515 3.163976 -0.63069832 8
-4.3364716 3.1413891 -0.49957287 11
-4.5870533 3.3229134 -0.39607728 4
-7.116549 5.1553082 -0.2040229 6
-8.0092878 5.8020182 0 5
-7.8759718 5.7054429 0.22579463 2
-7.8711596 5.7019567 0.45325679 5
-9.6782141 7.0110073 0.83568257 2
-11.464477 8.3049965 1.3207376 6
-4.5621109 3.3255291 -0.66020066 13
-4.5025349 3.2821014 -0.51982331 13
-4.6045818 3.3564882 -0.39844897 4
-4.5946708 3.3492634 -0.2651529 8
-7.157773 5.2176247 -0.20564766 6
-5.5483646 4.0444541 0 1
-8.9011669 6.4884634 0.25573656 3
-9.115078 6.6443925 0.52602011 5
-9.0834093 6.6213078 0.78601593 7
-12.463234 9.0850153 1.4388962 2
-4.5153832 3.312027 -0.6548577 9
-4.680645 3.4332464 -0.54156005 10
-4.5077305 3.3064137 -0.39091527 7
-4.6217651 3.3900578 -0.26729575 4
-5.5251756 4.0527081 -0.15908679 3
-7.1925659 5.2757363 0 3
-8.7335501 6.4060459 0.25146577 9
-8.8118 6.4634423 0.50962275 4
-9.0138521 6.6116471 0.78169101 7
-10.416242 7.6402979 1.20518 4
-4.494348 3.3171525 -0.65323156 8
-4.0725098 3.0058055 -0.35394436 22
-4.6100779 3.4025695 -0.26720256 7
-5.5163441 4.0714588 -0.15917964 4
-4.7389941 3.4977188 0 2
-8.9220314 6.5851016 0.25745416 3
-9.1402721 6.7461791 0.79438674 2
-10.047449 7.415741 1.1650507 1
-10.761183 7.9425273 1.5640854 1
-4.4667635 3.3148925 -0.38896209 15
-4.5915289 3.4074841 -0.26664355 1
-7.170692 5.3215432 -0.20731883 1
-4.70573 3.4922354 0 4
-7.4051118 5.4955115 0.21409638 2
-9.1445532 6.7863932 0.5310511 6
-9.6977472 7.1969314 0.84447187 7
-10.010409 7.428966 1.1630071 3
-10.111851 7.5042477 1.4725586 1
-4.6176052 3.4481292 -0.53765857 10
-4.4633026 3.332906 -0.38952014 28
-4.5082417 3.3664637 -0.13063036 3
-4.6184273 3.4487433 0 5
-7.3871722 5.516263 0.21404997 2
-8.2567616 6.1656165 0.4805547 5
-9.6571674 7.2113495 0.84279776 2
-9.9723673 7.4467201 1.1611494 1
-4.0086164 3.0130365 -0.70477265 4
-4.5000982 3.3824539 -0.52521104 10
-4.3794475 3.2917683 -0.38310254 16
-4.5147333 3.3934546 -0.26338273 9
-4.5168242 3.395026 -0.13118742 4
-4.5116458 3.3911338 0 4
-7.3570204 5.5298309 0.2136786 5
-8.4689178 6.3655782 0.49406388 5
-9.5754566 7.1972971 0.8376357 7
-10.768717 8.0941992 1.256828 3
-4.5865483 3.4662626 -0.53635806 10
-4.477459 3.3838186 -0.39244995 4
-4.5122089 3.4100809 -0.26375538 10
-4.5270615 3.4213057 -0.13174447 4
-4.5123258 3.4101691 0 4
-7.3393269 5.5466623 0.21358575 8
-8.3932505 6.3431597 0.49061671 3
-9.5199718 7.1946745 0.83442694 7
-9.511487 7.1882625 1.1122881 2
-4.3540769 3.3121164 -0.8987962 11
-4.448843 3.3842041 -0.5214954 13
-4.4572783 3.3906209 -0.39161286 9
-4.4808025 3.4085155 -0.26254421 8
-4.5242476 3.4415638 -0.13197659 4
-7.088253 5.3919854 0 6
-6.7521572 5.1363192 0.19696681 2
-8.370101 6.3670783 0.49043038 3
-9.4338045 7.1762304 0.82884645 11
-10.701313 8.1404152 1.2544128 1
-4.4931135 3.4389727 -0.92959911 22
-4.5966706 3.518234 -0.67692626 23
-4.4704094 3.4215951 -0.52521104 21
-4.4788857 3.4280827 -0.3944031 9
-4.462738 3.4157236 -0.2620784 9
-4.521956 3.4610481 -0.13220869 5
-7.9092021 6.0536036 0 1
-9.0518503 6.9281726 0.26464951 10
-8.3654518 6.4028115 0.49126887 2
-9.4425745 7.2272277 0.83149719 7
-9.914916 7.5887518 1.164865 4
-4.4284415 3.4078979 -0.6534639 17
-4.5008893 3.46365 -0.52985567 28
-4.4474459 3.4225225 -0.2617057 10
-7.7121415 5.9348621 -0.22593389 5
-4.6187048 3.5543146 0 3
-7.8500004 6.0409513 0.22997259 9
-8.2441626 6.3442779 0.48511985 5
-9.4773788 7.2932968 0.83624065 7
-4.0263963 3.098505 -0.95723635 5
-4.5637674 3.53492 -0.6750679 11
-4.4364591 3.436312 -0.52353901 21
-4.4287753 3.4303603 -0.26123989 9
-5.4630361 4.2314591 -0.16043302 4
-7.0519986 5.4622087 0 4
-6.8114066 5.2758555 0.20003064 7
-9.4512653 7.3205895 0.83596158 7
-12.125482 9.3919353 1.4309075 2
-4.4887519 3.4969149 -0.39789096 9
-4.447547 3.4648147 -0.26291686 5
-5.4511981 4.2466989 -0.16043302 4
-4.5675554 3.5583062 0 2
-7.8533406 6.1180625 0.46425048 2
-9.4355078 7.3506331 0.83638012 7
-3.9800725 3.1006339 -1.0724087 18
-4.4758277 3.5069757 -0.39761192 7
-4.5620885 3.5745637 -0.27027705 1
-4.1392956 3.2432899 -0.12208879 1
-4.5025001 3.5278742 0 4
-6.2482901 4.8957648 0.18429373 2
-8.1538887 6.3888712 0.48307019 1
-9.6395197 7.552918 0.85633051 7
-12.06665 9.4546642 1.79267 2
-4.4679222 3.5234895 -0.39789096 10
-4.4097338 3.4776011 0 4
-9.6768427 7.6313448 0.86177152 7
-10.127617 7.9868345 1.2033222 1
-3.957237 3.140969 -0.83005714 10
-4.0677166 3.2286596 -0.36315221 9
-4.1060834 3.2591128 -0.24446984 2
-4.5197563 3.5874562 -0.13397272 7
-4.3784208 3.4752743 0 4
-6.046701 4.7994347 0.17923377 9
-7.7943611 6.1866012 0.46406415 5
-10.372309 8.23279 1.2354628 1
-3.8674924 3.0697365 -1.0495384 11
-3.9952779 3.188247 -0.83978432 16
-3.9950407 3.1880577 -0.59771156 7
-4.5769372 3.6524134 -0.27307209 5
-4.0915089 3.2650394 -0.12153172 9
-6.5375481 5.2169881 0 5
-6.2341585 4.9748826 0.18517573 7
-9.0820427 7.2475047 0.54185849 5
-9.5360413 7.6097975 0.8531217 7
-10.563962 8.4300823 1.2609152 1
-3.8789802 3.0954409 -0.93501812 21
-4.2102504 3.3790836 -0.50366014 22
-4.1653304 3.3430312 -0.37347615 101
-4.5791845 3.6751845 -0.27381742 8
-6.023828 4.8346334 0 5
-7.3507705 5.8996177 0.21883139 2
-6.2042575 4.9794436 0.37099043 7
-9.4805222 7.6089244 0.85005242 10
-10.383525 8.3336601 1.242151 1
-11.529234 9.25319 1.7287871 2
-3.9461184 3.1863902 -0.47319156 24
-4.4658451 3.6060565 -0.40137875 8
-6.0249505 4.864994 -0.17979082 2
-4.5436602 3.66889 0 5
-7.2881212 5.8849726 0.21748517 5
-6.1894565 4.997829 0.37099043 10
-9.7016106 7.8338037 0.87195593 10
-3.8805428 3.1513827 -0.82130265 15
-4.420136 3.5895858 -0.39816993 4
-4.5734496 3.7140913 -0.27474907 4
-4.45577 3.6185238 0 4
-6.2142467 5.0465803 0.3733196 14
-9.23985 7.5036678 0.83233422 9
-3.8130202 3.0965478 -1.1638633 4
-3.9559698 3.2126369 -1.08322 7
-4.0552831 3.2932892 -0.98426867 12
-4.253406 3.475179 -0.64231342 25
-4.3872418 3.5845273 -0.52855515 18
-4.4743567 3.6557028 -0.40402949 8
-6.0569119 4.9487047 -0.36474827 2
-4.4608479 3.644666 -0.1337406 38
-4.3784161 3.577316 0 5
-6.6192732 5.4081736 0.19845231 5
-6.2147169 5.0776367 0.37425128 2
-8.7803059 7.173811 0.79285204 7
-11.149302 9.1093616 1.3432175 6
-3.9816482 3.2531431 -1.2182753 6
-3.979749 3.2515914 -1.0923681 14
-4.1094179 3.3575354 -0.99982136 15
-4.1157885 3.3843563 -0.87545085 22
-4.3414831 3.5699415 -0.78994656 25
-4.3820944 3.6033356 -0.66345286 9
-4.3005924 3.5363178 -0.5194518 18
-4.445899 3.6558015 -0.40249488 11
-4.3752465 3.5977049 -0.13151237 11
-4.3378053 3.5669177 0 4
-6.228055 5.121244 0.37602147 6
-10.01472 8.2349663 1.2096388 3
-3.9518678 3.2495663 -1.2122808 6
-3.9891584 3.28023 -1.0977738 19
-4.0381265 3.3204958 -0.98500919 18
-4.4053926 3.6418676 -0.80330724 10
-4.2027001 3.4743052 -0.63766736 17
-4.3557811 3.6008546 -0.52725464 23
-4.4132466 3.6483605 -0.40040216 15
-4.3041701 3.5581889 -0.12965551 16
-4.3130374 3.5655191 0 3
-6.1318626 5.0691133 0.18471152 19
-6.0955091 5.0390601 0.55302936 9
-10.034565 8.2954149 1.214655 4
-4.0921335 3.3829014 -1.1285448 11
-3.9703414 3.2822177 -0.97056735 30
-3.8110089 3.1707079 -0.81449354 7
-4.2949667 3.5733542 -0.78521466 13
-4.2894955 3.5688024 -0.6525346 14
-4.277091 3.5584819 -0.51908016 13
-4.3695555 3.635411 -0.39747241 12
-4.3125024 3.5879436 -0.26161253 9
-4.3175631 3.592154 -0.13039824 19
-6.2005777 5.1587973 0 5
-6.1328149 5.1024189 0.18522216 4
-6.1047711 5.0790873 0.37033826 11
-6.084249 5.0620131 0.55344784 5
-10.481476 8.7204456 1.2720622 1
-9.5914278 7.9799385 1.4590851 7
-4.0213304 3.3456926 -1.1119118 14
-4.0355544 3.3575268 -0.98908257 11
-3.8681734 3.2377365 -0.82876021 11
-4.2160029 3.5288768 -0.7726891 29
-4.2910748 3.5917132 -0.65439308 21
-4.2878928 3.5890501 -0.52168113 15
-4.3113222 3.6086607 -0.39314747 10
-4.1333194 3.4596686 -0.2513642 100
-4.3406181 3.6331818 -0.13141952 11
-6.1653075 5.1604824 0 5
-6.1065273 5.1112823 0.37136313 4
-9.5803766 8.0189619 0.87363005 10
-9.5653 8.0063429 1.1637503 3
-9.5829439 8.0211105 1.4614081 7
-3.9783838 3.3299847 -1.1027638 11
-4.0029678 3.3505621 -0.98352802 5
-4.0771294 3.4308307 -0.87545085 13
-4.2431188 3.5705078 -0.77936941 12
-4.2360582 3.5645664 -0.64742404 19
-4.2617211 3.5861614 -0.51963753 18
-4.3064389 3.6237905 -0.39356601 15
-4.2434797 3.5708115 -0.2586312 17
-4.2668352 3.5904646 -0.12946983 14
-4.2863488 3.606885 0 3
-6.3964286 5.3824792 0.19408868 7
-6.0992384 5.1323986 0.37173578 5
-9.4448557 7.9476752 0.86316663 7
-9.5062122 7.9993062 1.1591057 3
-3.9936008 3.3605428 -1.109417 19
-4.0227547 3.3850751 -0.99056381 12
-4.1181464 3.4862678 -0.88647509 18
-4.1599498 3.521657 -0.76600879 16
-4.2224312 3.5745516 -0.64695942 21
-4.2373838 3.5872097 -0.5179655 28
-4.1616669 3.5231106 -0.38128889 29
-4.3640008 3.6943989 -0.26664355 8
-4.3767223 3.7051685 -0.13313712 9
-6.148602 5.2051749 0 5
-6.3544879 5.3794703 0.1932995 5
-9.267437 7.8454638 0.84907579 15
-9.2103825 7.797163 1.1258503 4
-9.5198021 8.0591059 1.4586205 1
-3.9880922 3.376169 -1.1106644 10
-3.9931929 3.3804867 -0.98574984 13
-4.1312099 3.5196662 -0.89166296 20
-4.1609263 3.5449836 -0.76823562 19
-4.2154822 3.591464 -0.51666498 42
-4.1718397 3.5542819 -0.38324207 21
-4.267211 3.6355352 -0.26142621 18
-4.3955007 3.7448342 -0.13406557 9
-6.1291733 5.2218709 0 5
-6.1042714 5.2006555 0.37397182 12
-9.4204302 8.0259228 0.86539876 10
-10.77593 9.180768 1.3207376 2
-9.4641933 8.0632076 1.4539745 5
-3.9581072 3.3721881 -1.1052587 14
-3.9526312 3.3675227 -0.97834378 11
-4.0479293 3.4682701 -0.8757751 18
-4.1149144 3.5256629 -0.76155525 22
-4.1015849 3.5142419 -0.6316275 36
-4.1948514 3.5941529 -0.51536453 15
-4.1058402 3.5178881 -0.37808007 29
-4.2631102 3.6526372 -0.26179889 8
-4.381989 3.7544925 -0.13397272 9
-6.1964297 5.3091073 0.18944652 10
-6.1064124 5.2319803 0.3749966 9
-9.181325 7.866569 0.84544849 10
-9.3242435 7.9890218 1.1455435 4
-9.4325895 8.081852 1.4525807 7
-9.5728912 8.2020626 1.7716737 2
-3.7600057 3.2215769 -1.0524491 33
-3.9715691 3.4028444 -0.98537946 15
-4.0809722 3.5176311 -0.88517803 9
-4.1137099 3.5458498 -0.63511205 27
-4.2218776 3.6390858 -0.5200091 42
-4.5472369 3.9195323 -0.41979444 3
-4.2371221 3.6522257 -0.26086721 11
-5.71873 4.9293113 -0.17528795 5
-6.1853461 5.3315153 0 13
-6.1609626 5.3104978 0.18884304 12
-6.0817823 5.2422476 0.3744376 3
-8.4053621 7.2450781 0.775971 2
-3.7294436 3.2146277 -1.16663 6
-9.5275116 8.212326 1.7677768 9
-3.926765 3.3847108 -1.101932 18
-4.0090947 3.4556756 -0.99722922 22
-4.0592031 3.5186725 -0.88258415 15
-4.1289606 3.5791409 -0.76795721 19
-4.0662661 3.5247951 -0.62930453 18
-4.3350854 3.7578177 -0.53524333 5
-4.2963481 3.7242386 -0.2651529 14
-4.2454681 3.6801343 -0.13044468 10
-4.3176408 3.7426963 0 5
-9.2540007 8.0217218 1.1425709 12
-3.7384319 3.2406158 -1.0516174 63
-4.0974464 3.5518231 -1.0216693 41
-4.0264335 3.5112445 -0.87772053 20
-4.098918 3.5744545 -0.76433873 13
-4.2129912 3.6739318 -0.65369618 23
-4.2653842 3.7196212 -0.52799785 10
-4.2584343 3.7135603 -0.39510065 16
-4.2882905 3.7395961 -0.26533923 4
-6.510272 5.6772718 0 12
-6.9997845 6.1041503 0.21562831 11
-8.2137032 7.1627455 0.50822526 11
-9.218152 8.0386744 1.1410847 13
-3.8614984 3.3674128 -1.0890416 21
-4.1046658 3.5794666 -1.026113 17
-4.0100641 3.5179689 -0.87642354 18
-4.1225376 3.6166401 -0.77074069 20
-4.1826596 3.6693845 -0.65067625 25
-4.30439 3.7761765 -0.40040216 4
-5.7897282 5.0792413 -0.17881598 36
-6.6317167 5.8179054 0 22
-7.1139107 6.2409267 0.2197134 11
-8.856245 7.7694502 0.82382393 19
-9.2526426 8.1172037 1.1483302 6
-4.0397267 3.5439913 -1.142267 18
-4.1073246 3.6032941 -1.0294458 17
-3.9744537 3.5076513 -0.87091148 16
-4.1845508 3.6930723 -0.78437966 19
-4.1851587 3.693609 -0.652767 25
-4.5164642 3.9860024 -0.56199622 12
-4.2797036 3.7770495 -0.39914653 3
-5.863081 5.174458 -0.18155485 23
-5.8886533 5.1970267 0 11
-8.6829367 7.6631198 0.26887387 10
-9.3970985 8.2934027 0.87642032 13
-9.0299425 7.9693699 1.123621 5
-9.0896873 8.0220976 1.4177355 6
-3.6770072 3.2451403 -1.1620189 6
-3.9661231 3.5002992 -1.1243865 19
-4.0155673 3.543936 -1.009079 20
-3.8205824 3.3896873 -0.83913583 10
-3.9109778 3.469888 -0.61141735 20
-4.5849614 4.0678577 -0.57184279 22
-5.8046436 5.149981 -0.18016221 17
-6.235393 5.5321493 0.19353162 10
-8.8365974 7.8399835 0.55089563 11
-8.8455458 7.8479228 0.82689321 4
-9.0805407 8.0564146 1.4195938 11
-3.9218242 3.4795108 -1.1144067 20
-3.9959838 3.5453067 -1.0064869 17
-3.8487897 3.4351764 -0.84756613 22
-3.810714 3.4011924 -0.71785492 9
-3.8043342 3.395498 -0.59631771 9
-4.2534542 3.7963529 -0.53189927 34
-5.802763 5.1791639 -0.18057999 13
-6.2325635 5.5627756 0 13
-6.1562991 5.4947071 0.19158192 20
-8.7492056 7.8089647 0.54688948 16
-8.8341303 7.8847628 0.82800937 14
-9.093647 8.1163912 1.4254014 8
-3.9129429 3.4924352 -1.1148226 21
-3.8960013 3.4773142 -0.98389828 27
-3.7601628 3.3773556 -0.83038133 15
-4.0342879 3.6235733 -0.76211196 43
-3.7966039 3.4100869 -0.59678227 13
-4.2207661 3.7910669 -0.52929831 15
-4.591207 4.1237946 -0.28779244 4
-5.828115 5.2347779 -0.1818798 11
-6.2150574 5.5823274 0 13
-6.1285949 5.5046668 0.19125697 20
-8.9624405 8.0500097 0.56179619 16
-9.1198311 8.1913776 1.433532 1
-3.8713882 3.4772575 -1.1060903 20
-3.8017135 3.414676 -0.96279097 13
-3.7337296 3.3713179 -0.8264904 16
-3.8131106 3.4429936 -0.7220301 25
-3.8009319 3.4319973 -0.59887302 13
-4.3216758 3.9021952 -0.54323208 39
-4.7963228 4.330771 -0.45188242 3
-6.158102 5.5603704 -0.386922 9
-6.1885448 5.5878582 0 12
-6.0755768 5.4858551 0.19005001 15
-8.8760891 8.0145378 0.55769682 16
-8.834013 7.9765463 1.1104302 12
-9.1145697 8.2298708 1.4360873 1
-3.6500666 3.2957754 -1.1652466 6
-3.6894848 3.3313675 -1.0566074 14
-3.8015125 3.4325213 -0.96501279 10
-3.7128961 3.37374 -0.82422078 16
-3.7583022 3.4149983 -0.71367973 18
-4.0135999 3.6469758 -0.63418281 10
-4.2077036 3.823349 -0.53041297 10
-4.8949156 4.4477873 -0.4624854 5
-5.9044137 5.3650723 -0.18522216 18
-6.119154 5.5601969 0 11
-6.3039603 5.7281222 0.19775599 18
-8.7207518 7.9241509 0.54949814 6
-8.7680273 7.9671078 0.82842785 19
-8.9194479 8.1046972 1.1243641 12
-11.116054 10.100653 1.756431 4
-3.6627405 3.3281658 -1.1726246 6
-3.7398117 3.3981967 -1.0740719 7
-3.7019794 3.3638206 -0.94242424 30
-3.7086968 3.3900666 -0.82551771 15
-3.7890849 3.4635482 -0.7214734 15
-4.037951 3.6910331 -0.63975811 21
-4.0640574 3.7148969 -0.51369244 10
-4.9258766 4.5026731 -0.46667081 6
-5.8261533 5.325603 -0.36810228 17
-5.7984457 5.3002758 -0.18239044 31
-5.8000083 5.3017044 0 63
-7.980547 7.2949038 0.50421906 5
-8.806201 8.0496216 0.83428746 9
-8.9365177 8.1687431 1.1295661 13
-9.0113459 8.2371426 1.4277245 8
-3.649977 3.3363917 -1.1717023 9
-3.6979458 3.3802395 -1.0649238 16
-3.6557162 3.3416378 -0.93316668 48
-3.6977625 3.399075 -0.82519346 12
-3.7589843 3.4553518 -0.71757656 18
-3.802408 3.4952679 -0.6039837 35
-5.8671494 5.3932295 -0.37164259 26
-5.720324 5.2582641 -0.18039431 12
-5.6791649 5.2204294 0 38
-6.1274877 5.6325388 0.38813317 4
-8.9658232 8.2416077 0.851587 25
-8.7641315 8.0562077 1.1106161 5
-3.6707335 3.3742292 -1.1813858 19
-3.8224354 3.5136776 -1.1035954 19
-3.7794914 3.4742024 -0.96723467 15
-3.6992531 3.4207511 -0.82778746 11
-4.010457 3.7085259 -0.76767892 15
-3.8022301 3.5159757 -0.60560977 63
-3.7150924 3.4353981 -0.47207686 5
-5.8804584 5.4377422 -0.37350595 74
-4.3526578 4.0249639 -0.13764003 6
-5.7077031 5.2779932 0 52
-5.676805 5.2494211 0.17951229 11
-8.4195137 7.7856421 0.53477776 12
-8.9911356 8.314229 0.85633051 22
-8.9346437 8.2619905 1.1353253 9
-3.5835481 3.3137572 -1.1564854 9
-3.7861397 3.5010965 -1.0961106 19
-3.7908118 3.5054169 -0.97278917 15
-3.6810141 3.4230046 -0.82584196 13
-3.8753538 3.6037228 -0.7437411 79
-4.0295119 3.7470756 -0.64347494 8
-4.6679478 4.3407617 -0.59469426 10
-3.6701396 3.4128923 -0.35045651 4
-6.0320334 5.6092362 -0.38412696 20
-4.3340788 4.0302949 -0.13740791 6
-5.892128 5.4791374 0 20
-6.0530686 5.6287971 0.19190687 20
-6.5616469 6.101728 0.41785339 5
-8.7589521 8.1450205 0.83638012 10
-8.9975748 8.3669167 1.1462865 9
-3.7849433 3.519649 -1.0986055 45
-3.7479041 3.4852059 -0.96427214 21
-3.664233 3.4265306 -0.82422078 22
-3.7943923 3.5482464 -0.73010212 16
-4.0509524 3.7881629 -0.6485855 14
-5.7094784 5.3390989 -0.54661173 6
-6.3446693 5.933084 -0.4050895 7
-6.2826743 5.8751106 -0.19970569 7
-5.9805212 5.5925589 0 15
-6.2096548 5.806828 0.19738463 39
-6.5314493 6.1077476 0.4170149 6
-8.8854504 8.309042 1.1349537 6
-3.9051275 3.651798 -1.1364454 19
-3.6922193 3.4527013 -0.95242238 13
-3.9394608 3.7071698 -0.88874477 21
-3.7269764 3.5072148 -0.71924663 16
-4.0940046 3.8526013 -0.65741301 27
-4.7247691 4.4461722 -0.60528392 7
-5.6883187 5.3529062 -0.54619318 9
-5.6552811 5.3218169 -0.36213958 3
-6.661706 6.2688975 -0.2123788 13
-5.8711634 5.5249696 0 38
-6.2933097 5.9222236 0.20063412 15
-8.8390017 8.3178091 1.1323528 5
-3.7055795 3.4870794 -1.0815567 31
-3.7629402 3.5410578 -0.97352982 27
-3.7416224 3.540751 -0.72397852 24
-4.1193008 3.8981533 -0.66322052 27
-4.774529 4.5182052 -0.61327261 10
-5.887536 5.5714598 -0.18819314 46
-5.9428716 5.6238246 0 19
-7.6346273 7.2247572 0.24403833 18
-8.4526148 7.9988308 0.54269695 13
-8.8078184 8.3349648 0.84795964 5
-9.5794315 9.0651531 1.2304467 1
-3.6148341 3.4207692 -1.0578548 20
-3.7230577 3.5231829 -0.96575338 80
-3.8758047 3.6882999 -0.87901753 16
-4.0071878 3.8133268 -0.77742106 18
-3.9716923 3.7795486 -0.64115191 44
-3.7073812 3.5280242 -0.47746459 2
-5.5932951 5.322701 -0.53991508 16
-4.2433438 4.0380583 -0.27316526 3
-5.7734613 5.4941511 -0.18503648 45
-5.8489075 5.5659471 0 28
-7.4855113 7.1233749 0.23990679 6
-8.6690416 8.2496481 0.55806953 15
-6.4352636 6.1239367 0.82878196 3
-3.7044692 3.5252533 -1.0869623 67
-3.763037 3.5809877 -0.97871405 41
-3.7679021 3.606982 -0.85696912 23
-4.0250335 3.8531315 -0.65160543 8
-3.6753194 3.5183535 -0.47467783 8
-4.2775078 4.0948229 -0.41407442 3
-4.2111402 4.0312901 -0.2718609 4
-5.8654599 5.6149573 -0.18851809 5
-5.7774668 5.5307221 0 12
-5.7426906 5.4974308 0.18457225 9
-6.2070293 5.9419384 0.40071067 7
-6.415626 6.1416264 0.82859612 7
-10.539703 10.089572 1.7062539 4
-3.5187287 3.3684504 -1.1541797 28
-3.6275744 3.4726474 -1.0674187 40
-3.8645554 3.6995075 -1.0079681 15
-3.8333037 3.6927373 -0.8744781 19
-4.0280361 3.8803294 -0.78604972 20
-4.0028944 3.8561094 -0.64997935 12
-5.7643852 5.5530071 0 15
-5.7426724 5.5320902 0.18512931 9
-6.1494846 5.923985 0.39819518 6
-6.4386034 6.2025018 0.62515754 6
-9.5815439 9.2301912 1.2412221 3
-3.5983319 3.466382 -1.062013 59
-3.8826392 3.7402639 -1.0157444 19
-3.9994216 3.8730025 -0.914684 19
-3.8727422 3.7503273 -0.75765842 19
-3.9685261 3.8430836 -0.64603025 21
-6.0024881 5.8127537 -0.77954918 9
-4.7182217 4.5690818 -0.45927662 18
-4.2423882 4.1082892 -0.27540123 3
-5.6893878 5.5095501 -0.18387593 17
-5.7584481 5.5764275 0 13
-7.0539212 6.8309517 0.22797644 9
-6.080852 5.8886404 0.39474797 4
-8.6424294 8.3692474 0.84126306 10
-4.0062895 3.9027545 -0.91889918 46
-4.0587916 3.9538999 -0.79634851 19
-4.7513704 4.6285801 -0.61884612 2
-4.2330418 4.1236467 -0.27558759 1
-4.7091327 4.5874338 -0.1526342 3
-5.743309 5.5948844 0 9
-6.0697403 5.912879 0.19673473 7
-6.0447497 5.8885345 0.39353681 7
-8.6204166 8.3976383 0.84154207 7
-11.745057 11.441528 1.5297445 5
-9.4794092 9.2344322 1.5475919 5
-3.7814422 3.6837177 -0.99463713 11
-3.9559584 3.8780186 -0.91014469 23
-4.0944381 4.0137701 -0.80581236 57
-3.6868017 3.6141648 -0.60375136 31
-4.1374269 4.055912 -0.40514559 9
-4.2100806 4.1271343 -0.27493542 4
-4.6789927 4.5868077 -0.15212357 10
-5.7285614 5.6156983 0 15
-5.0045371 4.9059386 0.16270769 2
-5.9891291 5.8711324 0.3911145 4
-6.3942056 6.2682281 0.62613416 10
-9.7964163 9.6034098 1.2798653 1
-3.818975 3.7437341 -1.0075978 15
-3.9542251 3.8966749 -0.91209012 32
-3.9682391 3.9104846 -0.78298795 22
-3.5627189 3.5108664 -0.58493495 7
-4.6797843 4.6116743 -0.15254135 9
-5.7708201 5.6868305 0 79
-4.9603438 4.8881502 0.16168642 4
-5.953814 5.8671613 0.38981014 13
-6.4118767 6.3185573 0.62948239 12
-6.4181819 6.3247705 0.84067208 2
-3.8567564 3.8006246 -1.0201881 28
-3.8060346 3.774282 -0.88063872 100
-3.93484 3.9020126 -0.77881271 28
-3.9494367 3.9164875 -0.65044397 14
-4.0553083 4.0214758 -0.53282815 15
-4.1040807 4.0698414 -0.40416899 6
-4.6501164 4.6113214 -0.30540097 4
-4.6766319 4.6376157 -0.15291272 4
-5.67908 5.631701 0 11
-4.9407039 4.8994851 0.16154715 6
-6.0445838 5.9941554 0.39698401 12
-6.3792458 6.3260255 0.62822682 10
-6.3841414 6.3308802 0.83881426 5
