# .PCD v0.7 - Point Cloud Data file format
VERSION 0.7
FIELDS x y z intensity
SIZE 4 4 4 4
TYPE F F F F
COUNT 1 1 1 1
WIDTH 1369
HEIGHT 1
VIEWPOINT 0 0 0 1 0 0 0
POINTS 1369
DATA ascii
-3.1119347 -6.5009327 -1.1841284 26
-3.1648653 -6.611506 -1.0301594 15
-3.2343752 -6.7567148 -0.87600863 15
-2.1740048 -4.5415664 -1.4437886 27
-2.3858759 -4.9841723 -1.4465723 22
-2.6376278 -5.5100899 -1.4474512 18
-2.7789686 -5.8053555 -1.368059 23
-2.8521814 -5.9582996 -1.2445924 19
-3.0378819 -6.3066173 -1.1500831 100
-3.2016392 -6.6465759 -1.0368397 6
-3.2482896 -6.743422 -0.87531167 10
-4.1291213 -8.5720215 -0.88767546 16
-2.1792557 -4.5241165 -1.4399297 33
-2.36866 -4.9173183 -1.4288447 50
-31.407032 -65.200737 8.4632053 55
-2.6671307 -5.5369411 -1.4562125 14
-31.50499 -65.404099 10.202781 56
-2.7982399 -5.8091226 -1.370554 17
-2.8829384 -5.9849558 -1.2516283 34
-32.964439 -68.433899 14.311518 47
-3.0507822 -6.2828407 -1.1474892 26
-3.2772667 -6.7492671 -0.87740242 15
-3.2983804 -6.7927489 -0.70449251 9
-2.2178099 -4.5674009 -1.4559165 18
-2.415365 -4.9742498 -1.4475852 26
-31.504105 -64.880173 8.4343996 55
-2.6811111 -5.5215321 -1.4543679 18
-2.7489684 -5.6612792 -1.3377039 25
-2.9369237 -6.0483584 -1.2668108 27
-2.9954877 -6.1253729 -1.1202528 48
-3.2566848 -6.6594858 -1.04185 24
-3.2891207 -6.7258129 -0.87554401 5
-3.3208363 -6.7906675 -0.70523566 6
-2.2406912 -4.5819144 -1.4625319 13
-31.532198 -64.479141 6.6963944 55
-2.4751461 -5.0613432 -1.4749365 24
-2.6708715 -5.461576 -1.4405344 18
-2.7243743 -5.570982 -1.3181602 21
-2.9667544 -6.0666165 -1.2723652 35
-3.0164618 -6.1194725 -1.1209013 27
-3.2434397 -6.5799403 -1.0309944 57
-3.299695 -6.6940651 -0.87275642 15
-3.3289471 -6.7534089 -0.70244884 9
-2.260175 -4.5851994 -1.4658395 6
-2.511565 -5.0951924 -1.4870925 20
-32.87487 -66.692993 8.6952744 57
-2.649297 -5.374608 -1.4197841 17
-2.7669463 -5.6132822 -1.3302191 40
-2.9571226 -5.9990916 -1.2601452 22
-3.0124776 -6.0685997 -1.1131195 27
-3.2899802 -6.6276255 -1.0399015 63
-3.2795115 -6.6065359 -0.86253512 12
-2.5283637 -5.093358 -1.4886119 20
-2.6417964 -5.321867 -1.4077951 17
-2.8261015 -5.6931472 -1.3510102 21
-2.9502676 -5.9432783 -1.250147 27
-3.0223536 -6.046042 -1.1105256 22
-3.293421 -6.5882964 -1.0351696 75
-3.337229 -6.6759319 -0.69631803 15
-2.4889402 -4.9789796 -1.4572088 20
-2.6749215 -5.3510242 -1.4174784 19
-2.8209958 -5.6432371 -1.3410305 15
-2.994096 -5.9895144 -1.2616265 27
-3.2922156 -6.5401545 -1.0290461 82
-3.2949226 -6.5455322 -0.85695988 20
-2.4689069 -4.9046102 -1.4374552 15
-2.6977298 -5.3591781 -1.4216286 17
-2.84554 -5.6528111 -1.3451887 18
-2.9842997 -5.9284639 -1.2505172 55
-3.0667822 -6.0501909 -1.1144166 21
-3.3471801 -6.6033635 -1.0404582 27
-3.2970226 -6.5044122 -0.85277849 22
-3.3474534 -6.6039028 -0.69074452 13
-4.6085439 -9.0917997 -0.71277165 1
-2.4353564 -4.8045053 -1.410104 16
-2.7214842 -5.3689818 -1.4262397 17
-2.8666222 -5.6553125 -1.3476837 23
-2.9786286 -5.8762803 -1.2412598 19
-3.1468253 -6.1600361 -1.1364648 103
-3.367909 -6.5928159 -1.0404582 34
-3.3463585 -6.5506301 -0.86021209 35
-3.4035144 -6.6625147 -0.69799006 87
-4.5390596 -8.8853903 -0.69770426 1
-2.5041296 -4.9019337 -1.4410007 7
-2.74365 -5.3708043 -1.4290065 19
-2.8870449 -5.651505 -1.3489312 50
-3.0176396 -5.9071498 -1.2497767 19
-3.1309311 -6.0816879 -1.1238195 17
-3.2508104 -6.314548 -0.99814957 86
-3.4269302 -6.6566525 -0.87554401 67
-3.4463027 -6.6942825 -0.70244884 29
-4.7523308 -9.2311821 -0.7260254 1
-2.7275493 -5.2981377 -1.411945 21
-2.836731 -5.5102181 -1.3173286 70
-3.0820611 -5.9867601 -1.2686622 16
-33.03545 -64.169823 13.59831 50
-3.2494376 -6.2714801 -1.1604588 85
-3.3921568 -6.5469313 -1.036283 45
-3.2743678 -6.3195958 -0.83233595 25
-3.2494469 -6.2714982 -0.65897542 7
-4.7645507 -9.1956797 -0.72421175 1
-2.7691655 -5.3445454 -1.4262397 17
-32.821827 -63.34679 10.026866 55
-2.9078465 -5.6122026 -1.3435255 18
-33.306053 -64.281357 11.894459 56
-3.0724075 -5.9298086 -1.2582937 9
-33.319073 -64.306488 13.645711 50
-3.3246446 -6.3702865 -1.1805618 85
-3.447305 -6.6053138 -1.0471385 70
-4.394176 -8.4195948 -1.110633 10
-4.7678142 -9.1355152 -0.72058439 1
-2.7814095 -5.3294044 -1.4243953 17
-2.939873 -5.6330333 -1.3505945 18
-3.10181 -5.9433179 -1.2631077 42
-33.418797 -64.033104 13.608679 50
-3.326082 -6.3272038 -1.1744012 56
-3.4659655 -6.5933037 -1.0468601 34
-3.5114617 -6.6798515 -0.88251311 32
-3.5201044 -6.6962924 -0.70579302 9
-5.122602 -9.7447224 -0.76983243 1
-2.7836258 -5.2952895 -1.4174784 17
-2.9574828 -5.6260176 -1.3510102 21
-3.0947373 -5.8871164 -1.2531095 34
-3.3112578 -6.2591615 -1.1633769 27
-3.4044931 -6.4354014 -1.0232008 92
-3.4815636 -6.5810847 -0.87066567 12
-3.5888398 -6.7838655 -0.71601111 15
-2.7874691 -5.2690611 -1.4124062 12
-2.949332 -5.5750251 -1.3406147 21
-3.1459835 -5.9467487 -1.2675513 22
-33.740051 -63.777706 13.594238 50
-3.3455918 -6.2789192 -1.168889 100
-3.353723 -6.2941794 -1.0023247 31
-4.574399 -8.5851116 -0.90755427 9
-2.796685 -5.248745 -1.4091784 10
-2.9805796 -5.5938735 -1.3472679 60
-30.682001 -57.583176 10.719733 48
-3.1090853 -5.8350496 -1.2457033 24
-31.554811 -59.221241 12.642926 55
-3.4091761 -6.3501005 -1.1841284 27
-3.4999506 -6.5191817 -1.0399015 92
-3.3948514 -6.3234186 -0.83930498 17
-3.5115297 -6.5407495 -0.69260234 4
-3.0120189 -5.6103358 -1.3535053 70
-30.869286 -57.498665 10.722003 49
-3.167377 -5.8997135 -1.2616265 6
-3.3713808 -6.2404461 -1.1653223 26
-3.5913744 -6.6476555 -1.0618908 34
-3.6644394 -6.7828994 -0.9015618 7
-3.7766297 -6.9905639 -0.74127769 4
-3.0722587 -5.6867695 -1.3738806 25
-31.050661 -57.47496 10.732703 49
-3.1790738 -5.8844848 -1.2601452 6
-31.073277 -57.516819 12.317059 57
-3.2946184 -6.055326 -1.1325741 102
-3.5353589 -6.4977942 -1.0396231 30
-3.814486 -7.0108137 -0.74462187 6
-3.0180614 -5.54703 -1.342278 70
-31.173899 -57.295898 10.716492 48
-3.1486144 -5.7869792 -1.2412598 13
-31.151745 -57.25518 12.280769 57
-3.3759825 -6.1638041 -1.1546224 28
-3.563005 -6.5052662 -1.0424066 5
-3.8427665 -7.0160494 -0.93547785 60
-3.0429378 -5.5557375 -1.3464363 40
-31.029459 -56.652992 10.612411 48
-3.1298294 -5.7143826 -1.2275585 16
-3.467505 -6.2891579 -1.1799132 45
-3.6820297 -6.6782508 -0.89180511 22
-3.9055004 -7.0835686 -0.75465417 9
-2.9904323 -5.4238715 -1.316497 66
-31.264717 -56.706116 10.638673 48
-3.2084045 -5.8192167 -1.2519985 9
-31.599131 -57.312656 12.330759 57
-3.7386813 -6.7309022 -0.90040028 10
-4.4846959 -8.0739832 -0.86166561 9
-3.1014998 -5.5837579 -1.3576634 25
-31.576874 -56.849148 10.684067 48
-3.1445963 -5.6613469 -1.2201524 17
-31.518496 -56.744049 12.229667 58
-3.2852373 -5.873426 -1.105662 3
-4.8517866 -8.67414 -0.92724735 9
-3.1719344 -5.6708603 -1.2242258 14
-31.65794 -56.598824 12.218558 58
-3.4419193 -6.1159081 -1.1530012 5
-3.1163268 -5.5373664 -1.3505945 21
-31.990685 -56.843891 10.716492 48
-3.1752028 -5.6419826 -1.2197821 16
-32.251347 -57.30706 12.389638 57
-3.4619968 -6.1091022 -1.1536497 5
-3.1356366 -5.5332012 -1.3518419 12
-32.166988 -56.762455 10.719086 48
-3.1812704 -5.6137276 -1.2157087 11
-3.4752159 -6.0902333 -1.1520284 5
-32.634918 -56.411591 12.278917 57
-32.724091 -56.203041 12.253366 57
-33.768471 -56.872581 12.461847 56
-33.918907 -56.741779 12.455182 56
-32.29464 -52.617561 11.631996 61
-48.891861 -46.738419 12.743649 55
-50.651798 -48.150845 13.167277 53
-49.028553 -46.057003 12.674032 55
-49.476204 -45.416073 12.653666 55
-57.940273 -52.869678 12.886637 63
-49.557358 -44.983158 12.609969 56
-4.7371635 -4.2251091 -0.89209968 1
-4.3045096 -3.7936003 -0.80636901 1
-4.4521208 -3.9016559 -0.83197683 1
-4.2767262 -3.6166737 -0.78716308 4
-4.2922411 -3.6105649 -0.78827649 3
-4.327889 -3.6405513 -0.66136211 2
-4.3485179 -3.6359262 -0.79662693 3
-4.3706746 -3.6544523 -0.66624039 2
-4.2744937 -3.5740325 -0.51982331 2
-34.430496 -28.78837 5.2483854 24
-35.552509 -29.726521 7.6138282 23
-4.3677917 -3.6313651 -0.79829693 4
-4.382391 -3.6435027 -0.66647273 2
-4.9612737 -4.1247835 -0.6019398 2
-34.564213 -28.736551 5.256516 24
-35.662704 -29.649832 7.6196651 23
-4.3367014 -3.5850821 -0.79078162 4
-4.3803005 -3.6211247 -0.66461432 2
-34.759159 -28.734846 5.2739391 23
-34.820305 -28.785395 6.3493557 24
-4.3448815 -3.568927 -0.79022497 4
-4.403934 -3.6174335 -0.66647273 2
-4.4870963 -3.6857438 -0.54174584 2
-5.1338687 -4.2170086 -0.46457812 1
-9.5700426 -7.8609247 -0.28753534 2
-34.828854 -28.608753 4.2050323 25
-35.662636 -29.293631 7.582377 23
-4.8380189 -3.9514201 -0.87790394 5
-4.2370887 -3.4606144 -0.63975811 2
-4.9862833 -4.0725141 -0.60063928 2
-5.1579871 -4.2127519 -0.46569422 2
-6.7803764 -5.5378275 -0.40825722 1
-34.847519 -28.461479 5.2616272 24
-4.3678212 -3.5471013 -0.79078162 4
-4.4610782 -3.6228349 -0.67204797 2
-4.5168872 -3.6681573 -0.54286051 2
-5.1341105 -4.1694036 -0.4624854 3
-6.684154 -5.4281917 -0.40154919 1
-5.9197659 -4.8074331 -0.17705196 1
-34.852848 -28.303947 5.2504764 24
-34.75808 -28.226986 6.2928514 24
-34.269188 -27.829958 7.2529483 24
-4.7312436 -3.8189955 -0.85452294 5
-4.4146156 -3.5634179 -0.66345286 2
-4.5432463 -3.6672466 -0.54471838 2
-5.1992431 -4.1967583 -0.46722886 3
-6.6940122 -5.4033155 -0.40117651 3
-34.753834 -28.052824 6.2769856 24
-35.958294 -29.025045 8.7065926 12
-3.9608819 -3.177808 -0.71367973 3
-4.4003778 -3.5304148 -0.65973604 6
-4.9563961 -3.9765074 -0.59283638 5
-5.0264854 -4.0327396 -0.45062685 3
-5.6659565 -4.5457864 -0.33875471 1
-34.4445 -27.634758 7.255218 24
-4.3244615 -3.4472313 -0.64672714 2
-5.1588378 -4.1123514 -0.615502 7
-5.0812531 -4.0505056 -0.45439368 4
-5.6567779 -4.5092831 -0.33735722 5
-5.6911054 -4.5366473 -0.16897459 1
-34.474533 -27.481268 5.1556973 24
-34.984863 -27.888077 7.3505449 24
-4.5120506 -3.5762091 -0.80915242 3
-3.932421 -3.1168001 -0.58679336 5
-5.0409455 -3.9954062 -0.44978976 4
-5.6818714 -4.5033979 -0.33810255 5
-5.684947 -4.505836 -0.16841754 3
-5.7711177 -4.5741339 0 1
-34.216366 -27.119572 4.0733118 26
-34.516884 -27.357758 5.1505866 24
-35.213238 -27.909683 6.3148408 24
-5.0051723 -3.9443452 -1.0469743 3
-4.6775761 -3.6861815 -0.83698714 3
-5.0395465 -3.9714341 -0.44867364 4
-5.5939999 -4.4083729 -0.33213985 5
-5.7336273 -4.5184069 -0.16948524 2
-5.7603059 -4.5394311 0 3
-5.3984289 -4.2283478 -0.47950602 1
-5.9499273 -4.6603117 -0.35245025 3
-5.7596016 -4.5112381 -0.16985661 5
-5.7706008 -4.5198531 0 3
-34.359459 -26.912226 4.0718255 26
-34.283531 -26.852757 6.1202769 25
-4.7394581 -3.6922257 -0.56050998 7
-5.4425325 -4.2399483 -0.48243576 3
-5.8218665 -4.5354648 -0.1713421 1
-5.8076582 -4.5243959 0 1
-34.621449 -26.971483 4.094491 26
-34.939213 -27.219032 7.276618 24
-34.845036 -27.145664 8.322217 13
-4.7488174 -3.6769271 -0.56032419 7
-5.4819069 -4.2445455 -0.48480749 3
-6.3976336 -4.9535766 -0.3773258 4
-6.9941368 -5.4154387 -0.20536913 6
-7.0229049 -5.4377136 0 3
-3.9488173 -3.0377071 -0.58261192 7
-4.7998042 -3.6923461 -0.56496882 7
-5.6549306 -4.3501692 -0.4988983 4
-5.6990061 -4.3840752 -0.33530754 1
-6.8938403 -5.3032255 -0.20193394 6
-7.1762819 -5.5204992 0 4
-3.9772668 -3.0430498 -0.58563185 1
-5.6742234 -4.3414097 -0.49959585 4
-5.6787314 -4.3448586 -0.33344421 2
-6.1041846 -4.6703777 -0.17844459 5
-6.9572153 -5.3230405 0 1
-5.0836501 -3.8656979 -0.74684906 10
-4.8425431 -3.6823559 -0.56756973 10
-5.6963677 -4.3316193 -0.33372372 1
-6.0877752 -4.6292524 -0.17756259 2
-6.8965616 -5.2442679 0 6
-4.4865384 -3.390681 -0.65764529 9
-4.8883991 -3.6943855 -0.571657 10
-5.1571155 -3.8974667 -0.45202196 30
-5.6597853 -4.2773571 -0.33083552 5
-6.1094594 -4.6171961 -0.17779469 3
-6.8466725 -5.1743417 0 6
-4.8015394 -3.6064095 -0.7022472 10
-5.1732044 -3.885565 -0.60361183 10
-5.4127312 -4.0654721 -0.47336742 12
-5.3593564 -4.0253825 -0.31257483 4
-6.890521 -5.1754322 -0.20007707 6
-6.8300109 -5.1299829 0 6
-34.946564 -26.248169 5.1110954 24
-5.0898957 -3.8008063 -0.59265059 20
-4.9732566 -3.7137077 -0.43402478 4
-5.3641729 -4.0056186 -0.31220216 2
-7.1487865 -5.338253 0 4
-34.971977 -26.114819 5.1041265 24
-36.634571 -27.356337 8.6143866 12
-4.9275136 -3.6568267 -0.71757907 7
-5.1829195 -3.8463697 -0.45132437 23
-5.3744307 -3.9884949 -0.31210899 4
-6.60712 -4.9033031 -0.19102485 6
-11.200601 -8.3122368 0 3
-35.322086 -26.213373 5.1438503 24
-4.7177229 -3.4794765 -0.68552148 14
-4.6363826 -3.4194851 -0.53747278 7
-4.6515956 -3.4307053 -0.40416899 4
-5.4039273 -3.9855747 -0.31313381 4
-21.44766 -15.818357 0 13
-37.039425 -27.317797 6.4682093 23
-4.11098 -3.0142944 -0.8375147 4
-4.637711 -3.4005098 -0.67251259 9
-4.6459141 -3.4065242 -0.53747278 10
-5.4214811 -3.9751935 -0.31350651 4
-6.6159024 -4.8509793 -0.19046779 4
-6.5967174 -4.8369122 0 4
-35.760757 -26.220867 3.1008148 36
-37.126747 -27.22245 6.4701581 23
-36.539059 -26.791542 8.536623 12
-5.1215701 -3.7319758 -1.0411381 15
-4.6076431 -3.3574886 -0.66670507 11
-5.3904328 -3.9278901 -0.46639177 10
-5.3622074 -3.9073229 -0.30940714 4
-6.6175051 -4.822031 0 4
-36.121033 -26.320604 5.2265491 24
-36.380119 -26.509398 8.4810781 13
-4.5757818 -3.3147483 -0.92830217 4
-4.8277736 -3.4972939 -0.83782214 11
-4.5848274 -3.321301 -0.66205901 9
-4.6590061 -3.375037 -0.53672963 5
-5.504787 -3.9877303 -0.47532061 12
-5.3261781 -3.8583441 -0.3067053 4
-6.5060964 -4.7130904 -0.18652196 11
-6.6098895 -4.7882791 0 2
-36.535496 -26.46673 6.3404489 24
-36.535183 -26.466501 8.4999628 13
-5.0183883 -3.6153839 -1.0161715 17
-4.1555662 -2.9937835 -0.71980333 3
-4.7530699 -3.4242415 -0.68505687 9
-5.4455996 -3.9231584 -0.46932155 13
-5.3119459 -3.8268709 -0.30530781 5
-6.5735707 -4.7357798 -0.18810029 11
-7.1562829 -5.155582 0 4
-36.311264 -26.159626 5.2335186 24
-36.727135 -26.45923 8.5284767 13
-4.7689185 -3.4129505 -0.82418317 9
-4.6668816 -3.339926 -0.6711188 9
-4.8710732 -3.486059 -0.55883795 7
-5.4173379 -3.8770018 -0.46583375 14
-5.330442 -3.8148134 -0.30568048 7
-6.5477686 -4.6860123 -0.18693976 8
-11.241711 -8.0453043 0 3
-36.045872 -25.796787 2.0670931 26
-35.924137 -25.709665 3.0890956 36
-35.975983 -25.746771 4.1273751 25
-4.9770384 -3.5409212 -1.0035261 10
-4.2313552 -3.0104034 -0.72982383 5
-4.6794262 -3.3291843 -0.67158335 9
-4.8564491 -3.4551275 -0.55605114 13
-5.3809977 -3.8283184 -0.46178785 15
-5.3768868 -3.8253937 -0.30773014 5
-6.4158278 -4.5645499 -0.18280824 10
-11.330948 -8.0614185 0 3
-36.06234 -25.656603 4.1290469 25
-36.276482 -25.808952 5.2063389 24
-4.9546819 -3.5042169 -0.99704123 22
-4.9479866 -3.4994817 -0.85173947 8
-5.3688631 -3.797148 -0.45983469 19
-5.3386149 -3.7757549 -0.30493516 4
-7.2516203 -5.1287351 0 6
-7.2006941 -5.0927172 0.20476565 5
-36.44873 -25.778496 2.0819066 26
-36.369499 -25.72246 5.2093592 24
-36.451786 -25.780657 6.2747588 24
-5.0480242 -3.5464945 -1.0135776 18
-4.2634864 -2.9953167 -0.6093266 7
-5.3054061 -3.727318 -0.60491234 10
-5.4362712 -3.8192577 -0.46457812 21
-6.6718502 -4.687315 -0.18930726 5
-7.2267857 -5.0771852 0 8
-7.2346554 -5.0827141 0.2052763 10
-36.740414 -25.812014 2.0939252 26
-34.769279 -24.427193 2.9713466 33
-34.439518 -24.195517 3.9267282 27
-36.479385 -25.628628 5.2135406 24
-36.522873 -25.65918 6.2730889 24
-37.020458 -26.008759 7.4332261 24
-4.9693537 -3.4912241 -1.14424 1
-4.7731371 -3.3335044 -0.95651108 15
-5.1391587 -3.5891297 -0.88096583 17
-4.7213292 -3.2973223 -0.67344177 9
-5.3059974 -3.7056477 -0.60379767 17
-5.4469147 -3.8040628 -0.46457812 14
-5.7573037 -4.0208349 -0.32748151 6
-5.783318 -4.0390029 -0.16377538 5
-7.2081404 -5.0340829 0 6
-7.2324262 -5.0510435 0.20481206 10
-34.539593 -24.122055 3.9304438 27
-36.59478 -25.557375 5.2198129 24
-36.594379 -25.557095 6.2730889 24
-37.128536 -25.930143 7.4403596 24
-4.9903622 -3.4852118 -1.1468321 1
-4.8138123 -3.3407071 -0.9626717 28
-5.1497846 -3.5738664 -0.88096583 17
-4.9383521 -3.4271355 -0.7029441 15
-5.3889518 -3.7398443 -0.61197209 17
-5.5106277 -3.8242855 -0.46904254 19
-5.7610016 -3.9980407 -0.3270157 5
-5.7903481 -4.0184069 -0.16363612 7
-7.2887678 -5.0582857 0 1
-34.368885 -23.851442 3.9029479 27
-36.613323 -25.409048 5.2116823 24
-36.630993 -25.42131 6.2664084 24
-4.8133769 -3.340405 -1.1038768 2
-5.0001926 -3.4494033 -0.99801397 12
-4.1995273 -2.8970609 -0.71701992 2
-5.3715096 -3.7055576 -0.60881382 30
-5.6148953 -3.8734584 -0.47699475 21
-5.8015475 -4.0022211 -0.16363612 5
-7.3012195 -5.0367761 0 3
-36.040363 -24.862593 1.0165401 37
-34.446453 -23.763025 2.9262841 32
-34.463223 -23.774595 3.9061062 27
-36.793137 -25.381895 6.2819958 24
-37.277264 -25.715874 7.4403596 24
-4.1658564 -2.8738332 -0.95353335 1
-4.8704133 -3.3385897 -0.97012925 7
-4.2130051 -2.8879468 -0.71785492 6
-5.0563173 -3.4660237 -0.71688217 17
-5.3611279 -3.6749666 -0.60639858 20
-5.7053533 -3.9109273 -0.48369139 15
-5.4510689 -3.7366195 -0.30819598 11
-7.452692 -5.1087003 -0.20977917 6
-7.5668759 -5.1869712 0 1
-35.639572 -24.430351 2.0150127 27
-34.62542 -23.735165 2.9354918 33
-36.416626 -24.963009 5.1631312 24
-36.87809 -25.279333 6.2836661 24
-37.568272 -25.752443 7.4831591 23
-4.1273527 -2.8292334 -0.9427945 2
-4.1642385 -2.8363934 -0.82778746 9
-4.242835 -2.8899279 -0.7214734 7
-5.1749377 -3.5248125 -0.73221403 50
-5.345675 -3.6411068 -0.60342604 30
-5.5982075 -3.8131144 -0.47364646 3
-5.75109 -3.9172475 -0.3245002 15
-7.4116316 -5.0482945 -0.20820084 4
-7.5541325 -5.1453562 0 6
-36.83176 -25.087265 1.0346445 36
-34.656116 -23.605368 2.9321434 33
-36.482327 -24.849257 5.1619697 24
-36.902191 -25.135239 6.2750373 24
-4.1471004 -2.8247199 -0.94538671 1
-38.600681 -26.292133 8.7995386 11
-4.1410928 -2.803731 -0.82162684 9
-4.259089 -2.8836203 -0.72286516 9
-5.0679722 -3.4312751 -0.71572065 22
-5.5042286 -3.7266431 -0.62014657 21
-5.5097089 -3.7303536 -0.4652757 15
-5.230969 -3.5416327 -0.29459363 9
-9.9638491 -6.7460337 -0.27936515 6
-10.007937 -6.7758837 0 7
-34.370213 -23.270384 1.9356347 28
-34.723797 -23.509781 3.9122369 27
-36.574604 -24.762871 5.1652217 24
-36.959118 -25.023207 6.2728105 24
-4.270524 -2.8913622 -0.97167826 1
-38.805782 -26.273491 8.8295336 11
-4.244122 -2.8562341 -0.71896833 15
-5.296721 -3.5646183 -0.74661672 17
-5.4650521 -3.6779029 -0.61457306 37
-4.3375316 -2.9190977 -0.24381767 2
-6.1906452 -4.1662169 0 1
-35.888103 -24.152187 1.0043311 37
-34.209652 -23.022614 1.9229641 29
-34.774452 -23.402716 3.9105651 27
-37.242455 -25.063646 6.3089952 24
-4.2524924 -2.8618674 -0.96575338 5
-4.2563667 -2.8450887 -0.71952498 12
-5.2154088 -3.4861424 -0.73360789 17
-5.3888345 -3.6020656 -0.60472655 17
-5.5367236 -3.7009194 -0.46569422 38
-7.3157697 -4.8900895 -0.20430142 4
-12.645178 -8.4524326 0 3
-35.948841 -24.029329 1.0039134 37
-34.135643 -22.817331 1.9147652 29
-34.663406 -23.170105 2.9155416 32
-38.724075 -25.884384 8.7758398 11
-4.3324327 -2.8773706 -0.73093718 13
-5.2306948 -3.4739482 -0.73430479 20
-5.4160872 -3.5970759 -0.60658437 12
-5.4803004 -3.6397231 -0.30679849 25
-6.2292957 -4.1371655 -0.17361677 3
-7.2772441 -4.8331571 0 6
-34.090031 -22.640778 1.90843 29
-37.794125 -25.100842 6.3763552 24
-4.1340656 -2.7290223 -0.8138451 13
-4.4313583 -2.9252741 -0.74624628 9
-5.4111528 -3.5720661 -0.60491234 25
-5.2670221 -3.4769213 -0.29431412 3
-9.7350159 -6.4263792 -0.27082357 4
-7.3140793 -4.8282456 0 4
-34.07975 -22.497078 1.9043306 29
-33.795582 -22.309488 2.8316944 30
-35.340343 -23.329235 3.9506943 27
-37.576462 -24.805363 6.3279233 24
-40.120201 -26.484562 7.8981881 22
-4.1482162 -2.7383635 -0.93649936 5
-4.3186278 -2.8335738 -0.72592694 11
-4.4395089 -2.9128871 -0.62094164 8
-5.3611684 -3.5176141 -0.59822416 32
-5.3051081 -3.4808311 -0.29589796 7
-7.3576326 -4.8275509 0 6
-34.315784 -22.515554 0.952896 41
-34.057255 -22.345928 1.8995793 29
-33.901123 -22.243484 2.8353217 30
-35.247185 -23.126673 3.9330447 27
-34.772003 -22.814892 4.8634624 26
-37.489929 -24.598204 6.3017588 24
-39.370621 -25.832176 7.7363915 22
-4.2281518 -2.7742097 -0.95279276 5
-4.2954931 -2.8001974 -0.72063839 11
-4.4448042 -2.8975322 -0.62047708 8
-5.4352503 -3.5431957 -0.4536961 45
-5.340517 -3.4814401 -0.29729545 9
-7.3263888 -4.7760139 -0.20304805 16
-7.4255385 -4.8406487 0 9
-34.325485 -22.376507 0.95131767 41
-34.120064 -22.242594 1.8993928 29
-34.058895 -22.202719 2.8429947 31
-35.320652 -23.025249 3.9336021 27
-34.817909 -22.697514 4.8604422 26
-4.2429504 -2.7659452 -0.95427394 3
-38.774342 -25.276682 8.720664 12
-4.2933235 -2.7817295 -0.71896833 12
-5.5037274 -3.5659745 -0.45857906 20
-5.3401585 -3.4599946 -0.29673645 12
-9.4573698 -6.1276178 -0.26163208 4
-7.3869944 -4.7861805 0 6
-34.246887 -22.189238 0.94741827 41
-34.138447 -22.118979 1.8969704 29
-34.204487 -22.161766 2.8499706 31
-34.917835 -22.62396 4.8655534 26
-38.71447 -25.083874 8.6914101 12
-4.2892041 -2.7620847 -0.83816308 15
-4.2694368 -2.7493556 -0.71367973 11
-4.4141545 -2.8425479 -0.6139726 4
-5.5237288 -3.5570717 -0.45941615 14
-7.4860883 -4.8207569 0 6
-34.296951 -22.085936 0.94709331 41
-34.223602 -22.0387 1.8982749 29
-33.826756 -21.783148 2.8134179 30
-38.306709 -24.668066 6.4033546 24
-4.2963386 -2.766679 -0.96279097 8
-4.3111606 -2.7571032 -0.84075707 5
-4.3264394 -2.7668746 -0.72175175 10
-5.3935466 -3.4493182 -0.59729522 25
-5.5029407 -3.5192785 -0.45676538 18
-5.9277916 -3.7909825 -0.32813367 42
-7.4523335 -4.7659678 0 6
-34.243198 -21.899448 0.94370455 41
-34.100079 -21.807917 2.8304386 30
-35.461475 -22.678568 4.9224668 26
-4.3861413 -2.8050556 -0.98093587 3
-39.051392 -24.974417 8.7336245 12
-4.3388305 -2.7577569 -0.84464794 10
-4.3742647 -2.7802789 -0.72843206 9
-5.1183023 -3.2531884 -0.70921624 32
-5.142664 -3.2686727 -0.56849867 65
-5.0884304 -3.2342019 -0.42160812 18
-6.0192876 -3.8258538 -0.33260569 25
-5.8470235 -3.716363 -0.16085082 2
-7.2546258 -4.6110339 0 6
-5.874022 -3.7335234 0.16159357 6
-34.451569 -21.897387 1.9036784 29
-34.04298 -21.637688 2.8206728 30
-35.04406 -22.273973 3.8739657 27
-4.4321084 -2.8170443 -0.9894529 8
-4.3548574 -2.7508998 -0.84626919 9
-4.3535466 -2.7500715 -0.72370017 6
-5.1542387 -3.255857 -0.71293306 20
-5.3723216 -3.3936169 -0.59283638 12
-5.5907922 -3.5316217 -0.3083823 41
-5.8387837 -3.6882744 -0.16034019 4
-5.8302121 -3.6828594 0 2
-7.3939896 -4.6706748 0.20304805 10
-34.041336 -21.503414 1.877685 29
-34.244961 -21.632042 2.8323917 30
-34.796349 -21.980345 3.8397815 28
-35.298725 -22.297688 4.8825111 26
-36.643467 -23.147141 6.0913286 25
-36.477356 -23.042212 7.0885582 25
-4.3668447 -2.7584717 -0.97315943 11
-4.3875942 -2.7544684 -0.85113281 6
-4.3746276 -2.7463284 -0.72592694 10
-5.4812846 -3.4410715 -0.75683796 52
-5.2873302 -3.3193099 -0.58243251 70
-5.4646401 -3.4306226 -0.45118487 19
-5.6632371 -3.5552988 -0.31182948 12
-5.7186666 -3.5900967 -0.15676571 3
-5.8675752 -3.6835792 0 7
-7.3629737 -4.6223688 0.20184109 10
-34.121552 -21.421019 1.8788029 29
-34.717533 -21.795166 2.8664331 31
-34.916618 -21.920151 3.8462839 27
-35.317104 -22.17157 4.876471 26
-35.825653 -22.490829 5.9449186 26
-36.342651 -22.815395 7.0499735 25
-4.2679973 -2.6793871 -0.94946003 5
-39.405727 -24.73835 8.7662115 12
-4.4911985 -2.8009651 -0.86961454 11
-4.3945212 -2.7406716 -0.72787535 7
-5.1965027 -3.2408326 -0.71618527 22
-5.1974654 -3.2414329 -0.57147127 92
-5.4612527 -3.4059455 -0.45006877 19
-5.6839333 -3.5448217 -0.31238848 54
-5.9090257 -3.6852021 0 1
-34.588421 -21.571291 1.9009767 29
-34.778667 -21.689941 2.866154 31
-34.947716 -21.795368 3.8425682 28
-34.95293 -21.79862 4.8172345 26
-36.388424 -22.693876 7.0457582 25
-5.1509786 -3.1900098 -0.99542004 16
-4.3576469 -2.698698 -0.72035998 4
-5.3434529 -3.3092096 -0.73500162 22
-5.4751143 -3.3907475 -0.60082507 17
-5.5567355 -3.4412956 -0.45704442 19
-5.6440864 -3.4953923 -0.3095935 34
-5.6520972 -3.5003536 -0.15435179 7
-7.3641596 -4.5606365 0 6
-7.3910728 -4.5773039 0.20184109 7
-34.625443 -21.443594 1.8992997 29
-35.053566 -21.708735 2.8831744 31
-35.109127 -21.743141 3.8527863 27
-34.77129 -21.533918 4.7828536 26
-35.716541 -22.119316 5.9042802 26
-36.511547 -22.611664 7.05581 25
-39.439148 -24.424732 8.7402906 12
-5.1548247 -3.1725099 -0.99444735 23
-5.2388744 -3.2242377 -0.86454338 15
-5.2731614 -3.2453396 -0.72408348 22
-5.4302926 -3.3420451 -0.59487998 25
-5.5646243 -3.4247189 -0.45690489 6
-5.6963606 -3.5057952 -0.31192264 20
-5.7027178 -3.5097079 -0.15546592 4
-11.902458 -7.3253055 0 9
-7.4106383 -4.5608382 0.20202677 2
-34.659668 -21.33111 1.8979021 29
-36.424076 -22.417006 2.9907389 34
-35.118828 -21.613699 3.8472126 27
-34.912491 -21.48671 4.7940044 26
-4.2881818 -2.6226561 -0.82584196 2
-5.2410994 -3.2054617 -0.86343002 35
-5.1618843 -3.1570137 -0.7075901 25
-5.4514956 -3.3341403 -0.5961805 27
-5.6524601 -3.4570501 -0.46332249 21
-5.4572949 -3.337687 -0.29832029 9
-5.6596189 -3.4614286 -0.15402684 1
-6.3675075 -3.8943739 0 1
-7.4199347 -4.5380392 0.20193394 7
-35.087238 -21.459391 1.9180263 29
-35.056824 -21.44079 2.873548 31
-35.219822 -21.540478 3.8516715 27
-34.96558 -21.384985 4.7930751 26
-35.863178 -21.933956 5.9081774 26
-4.315804 -2.6395502 -0.95316303 18
-41.006844 -25.079826 9.05653 10
-5.125874 -3.1129065 -0.84283239 25
-5.3415651 -3.2438941 -0.73082024 32
-5.4789639 -3.3273351 -0.59803832 52
-5.5695009 -3.3823178 -0.45564932 21
-6.3745813 -3.8712373 0 5
-6.398499 -3.8857622 0.17380245 4
-7.4536991 -4.5265775 0.40667337 6
-35.077969 -21.302597 2.8697815 31
-35.237957 -21.399755 3.8462839 27
-35.837105 -21.763613 5.8925891 26
-41.429806 -25.160023 9.1324425 10
-5.1916528 -3.1342797 -0.85229611 23
-5.2241955 -3.1539264 -0.7136299 47
-5.4842458 -3.3109226 -0.5976668 35
-5.4092436 -3.2656426 -0.44183749 31
-5.7227125 -3.4548886 -0.31173632 14
-6.4137845 -3.8720994 0.17394172 4
-7.4809151 -4.5163422 0.40751183 1
-35.145569 -21.217915 2.8707581 31
-35.194981 -21.247744 3.8355083 28
-35.445282 -21.398857 4.8418584 26
-37.30801 -22.523415 6.1247306 25
-40.041691 -24.173777 7.6845131 23
-41.47702 -25.040308 9.1283693 10
-4.4571457 -2.6717749 -0.60770053 28
-5.3955574 -3.2342927 -0.58689129 22
-5.3647184 -3.2158067 -0.4373731 15
-5.6461477 -3.3845057 -0.30698481 41
-6.2801251 -3.7645347 0 10
-6.420774 -3.8488448 0.17380245 9
-35.114071 -21.048647 1.9091753 29
-35.008423 -20.985317 2.8541558 31
-35.03611 -21.001913 3.8109848 28
-35.195438 -21.097422 4.7986503 26
-37.432953 -22.438669 6.1336374 25
-39.954945 -23.950443 7.6533861 23
-4.7270727 -2.8156645 -0.51332092 10
-5.3822479 -3.2059176 -0.43807065 16
-5.4341602 -3.2368388 -0.29496628 100
-6.3129511 -3.7602875 0 11
-6.4400859 -3.836015 0.17403455 9
-35.272266 -21.009804 1.914579 29
-34.977753 -20.834379 2.8469012 31
-35.108311 -20.912144 3.8124714 28
-35.085255 -20.898411 4.7756524 26
-49.875984 -29.708458 8.158885 39
-39.989456 -23.819582 7.6472254 23
-5.6882091 -3.366679 -0.46220639 45
-5.4466162 -3.2236874 -0.29515263 34
-5.709166 -3.3790827 -0.15402684 10
-6.3544064 -3.7609811 0 10
-6.4335656 -3.8078332 0.17357033 6
-34.978348 -20.702627 1.8954798 29
-34.975704 -20.701061 2.8420181 31
-35.231689 -20.852571 3.8195312 28
-35.170826 -20.816549 4.7793694 26
-36.422569 -21.557419 5.9482589 26
-40.152622 -23.765121 7.6657066 23
-41.849571 -24.769497 9.1624374 10
-5.5817895 -3.2800574 -0.45271951 49
-4.3526273 -2.5577581 -0.23543267 4
-5.6973433 -3.3479607 -0.15342337 3
-9.5854969 -5.6327777 0 6
-34.809822 -20.455484 0.93739122 41
-36.443565 -21.415531 1.9712244 28
-34.899517 -20.508192 2.8305783 30
-36.347744 -21.359222 3.9332306 27
-35.229198 -20.701925 4.77844 26
-36.660873 -21.543226 5.9760933 26
-43.567459 -25.601784 9.5208912 17
-4.3327422 -2.5308371 -0.35087505 14
-4.3593082 -2.546355 -0.23543267 4
-35.001369 -20.444965 0.94110495 41
-36.137234 -21.108446 1.9516596 28
-36.510147 -21.326271 3.9447494 27
-35.317577 -20.629667 4.7830858 26
-43.522324 -25.422216 9.4964514 16
-4.7749987 -2.7701981 -0.64556557 4
-4.4301991 -2.570164 -0.47783613 11
-6.5271111 -3.7866797 0 15
-6.0601206 -3.5157568 0.16266127 12
-36.23254 -21.020176 1.9534296 28
-35.470829 -20.578272 2.8675492 31
-44.044231 -25.552101 7.1562815 24
-5.2133851 -3.0038855 -0.8456158 15
-5.4540849 -3.1425736 -0.58726287 27
-5.8574338 -3.3749781 -0.1569514 11
-5.7013168 -3.2850254 0 8
-36.057598 -20.775925 1.9406658 28
-35.246502 -20.30858 2.8445296 31
-36.560143 -21.065483 3.9365747 27
-35.962627 -20.721203 4.8537059 26
-43.749191 -25.207722 7.0961585 23
-5.1650314 -2.9568462 -0.83643037 5
-4.8132858 -2.755481 -0.6485855 14
-5.3349509 -3.054121 -0.57351488 37
-5.6861672 -3.2551832 -0.45816052 20
-4.4264426 -2.5340233 -0.237855 10
-4.4543519 -2.5500009 -0.11916423 10
-6.512362 -3.728158 0 17
-6.3232021 -3.619869 0.16916029 61
-35.481407 -20.312183 2.8588994 31
-35.886063 -20.543839 3.8578024 27
-36.080677 -20.655251 4.861836 26
-48.006432 -27.482435 7.7742105 33
-51.863323 -29.690405 11.25947 63
-5.1078496 -2.9052024 -0.82585329 21
-4.898664 -2.7862232 -0.65903908 15
-5.5114069 -3.1347342 -0.44337216 58
-4.4527659 -2.532609 -0.11893212 11
-5.2693095 -2.9970362 0 6
-6.7104335 -3.8167071 0.17923377 11
-36.160912 -20.567316 1.9400136 28
-35.746105 -20.331387 2.8756409 31
-36.542198 -20.784182 3.9220834 27
-36.991211 -21.039568 4.976593 25
-51.911961 -29.526072 9.8118591 43
-4.3680744 -2.4673145 -0.82422078 20
-5.2078428 -2.941659 -0.84060562 77
-4.8844242 -2.7589753 -0.65601915 47
-5.2744293 -2.9792707 -0.56515455 25
-5.4963627 -3.10463 -0.44141895 29
-5.3994327 -3.0498788 -0.28918993 15
-5.2694716 -2.9764702 0 6
-6.7635102 -3.8203804 0.18034789 7
-6.229178 -3.5185618 0.33363053 1
-35.483158 -20.042723 2.8496914 31
-36.425121 -20.574793 3.9029479 27
-37.053474 -20.929718 4.976593 25
-41.400478 -23.385132 7.8119397 22
-4.8866277 -2.7411268 -0.78744149 10
-4.805964 -2.6958787 -0.64440411 17
-5.6306 -3.1584537 -0.60231137 77
-5.6116948 -3.1478488 -0.44992927 67
-5.2713027 -2.956908 0 7
-6.382452 -3.5802011 0.16990303 10
-43.609184 -24.46233 2.3317802 22
-35.589455 -19.963707 2.8534584 31
-35.964977 -20.174355 3.8472126 27
-37.103287 -20.812881 4.974967 25
-40.380146 -22.65102 7.6066952 23
-4.3704872 -2.4345822 -0.70310253 13
-5.0013623 -2.7860112 -0.66949266 27
-5.6660404 -3.1562705 -0.60509813 35
-5.6000938 -3.119535 -0.44825509 28
-5.3755484 -2.9944518 -0.28695393 16
-5.2471886 -2.9229488 -0.13945048 4
-10.030702 -5.5876074 0 4
-6.2672811 -3.4911921 0.16656066 21
-38.803432 -21.615471 2.0713789 26
-36.023258 -20.066774 2.8834536 31
-35.951607 -20.026861 3.8394096 28
-36.12191 -20.121727 4.8353539 26
-41.630367 -23.190216 6.6972885 22
-40.526478 -22.575294 7.6216102 23
-4.3772693 -2.4223678 -0.70310253 6
-5.0160747 -2.7758808 -0.6704219 29
-5.6696057 -3.1375427 -0.60454077 45
-5.5913267 -3.0942237 -0.44685996 82
-5.3331971 -2.9513755 -0.28425211 32
-5.2710757 -2.9169977 -0.13986826 10
-6.2945008 -3.4833581 0.1670249 14
-37.03347 -20.494211 1.9738331 28
-36.601112 -20.254946 2.925168 32
-35.96558 -19.903244 3.8349509 28
-41.013939 -22.696993 6.5878983 23
-40.850105 -22.606327 7.6705709 23
-5.0508876 -2.7744527 -0.67390639 22
-5.4874444 -3.0142534 -0.58410454 100
-5.4331479 -2.9844284 -0.43346673 36
-5.683898 -3.1221652 -0.30241963 21
-5.2924819 -2.9071605 -0.14019321 3
-11.90458 -6.539186 0.31534189 4
-38.857483 -21.344416 2.067466 26
-36.619106 -20.114876 2.9215407 32
-36.747028 -20.185144 3.911494 27
-41.098934 -22.575647 6.5901251 23
-41.079823 -22.565149 8.8306446 11
-4.4055095 -2.4039576 -0.82454503 16
-4.3863511 -2.3935032 -0.70226747 5
-5.1213899 -2.7945926 -0.68226922 57
-5.3525004 -2.9207027 -0.56887025 22
-5.4116869 -2.9529991 -0.431095 15
-5.2699456 -2.8756549 -0.27996641 30
-6.2834058 -3.4286704 0 21
-11.956141 -6.5241156 0.31622389 22
-11.862202 -6.472856 0.63018066 3
-36.753937 -20.055546 2.9278185 32
-36.83646 -20.100578 3.915024 27
-40.317215 -21.999924 5.3710408 23
-40.628395 -22.169725 7.6041017 23
-41.394562 -22.587799 8.8847094 23
-4.4031134 -2.3877113 -0.82292378 13
-4.3978257 -2.3848438 -0.70310253 10
-5.4674582 -2.9648821 -0.72733569 20
-5.4914188 -2.9778752 -0.58280402 32
-5.4878001 -2.9759128 -0.43653601 23
-5.2036953 -2.8218491 -0.2760534 4
-6.1112728 -3.3140085 0 68
-11.792141 -6.3946176 0.31144246 13
-11.859788 -6.4313016 0.62915581 7
-36.808071 -19.960205 2.9279583 32
-36.845196 -19.980337 3.9103792 27
-36.775688 -19.942646 4.8922677 26
-41.311008 -22.40205 6.604599 23
-40.668949 -22.053875 7.6008592 23
-4.8151989 -2.611176 -1.0320379 26
-41.545124 -22.529005 8.904335 11
-4.4036412 -2.3701262 -0.82162684 4
-5.3280635 -2.8676686 -0.7075901 100
-5.4867182 -2.9530597 -0.58131778 40
-5.5199599 -2.9709511 -0.43834969 101
-5.2512369 -2.8263187 -0.27810308 26
-6.3418455 -3.413306 -0.16721058 15
-6.3717327 -3.4293916 0 31
-12.771723 -6.873992 0.33674222 5
-11.872896 -6.3902264 0.62878317 7
-39.303802 -21.154079 3.1211836 37
-36.941097 -19.882425 3.9139092 27
-40.670654 -21.889744 5.4012403 23
-41.518951 -22.346315 6.6265883 22
-40.974369 -22.053211 7.6449556 23
-4.8527989 -2.6118717 -1.0383331 17
-40.964962 -22.048147 8.7651014 12
-4.9651074 -2.6555772 -0.79133832 12
-5.2707415 -2.8190448 -0.69899493 42
-5.3960967 -2.8860908 -0.57091391 22
-5.6033697 -2.9969504 -0.44434875 55
-5.3872209 -2.8813436 -0.28490427 41
-6.4089432 -3.4278097 -0.16874249 38
-6.4089065 -3.4277902 0 17
-37.03326 -19.807161 2.9367476 33
-37.27047 -19.934031 3.9432628 27
-36.574638 -19.561867 4.8504534 26
-41.018459 -21.938635 6.537518 23
-41.052853 -21.957031 7.6488466 23
-4.8180261 -2.576911 -1.0294458 23
-41.199322 -22.03537 8.8028717 11
-4.4202962 -2.3473454 -0.82227528 19
-5.0201931 -2.6659136 -0.79885364 18
-5.3843489 -2.8592942 -0.71293306 37
-5.4521222 -2.8952844 -0.57593006 22
-5.4888911 -2.9148102 -0.43458286 22
-5.2245932 -2.7744577 -0.27586707 6
-6.5727196 -3.4903641 -0.17278117 26
-6.4561429 -3.4284575 0 38
-6.3820009 -3.3890853 0.16776763 17
-6.7102757 -3.5634117 0.35431358 3
-39.405479 -20.92581 3.1199281 37
-37.561604 -19.946642 3.9677863 27
-37.139549 -19.722513 4.9175882 26
-36.986752 -19.641373 5.8856306 26
-4.6816263 -2.4672987 -0.7437411 32
-5.3651867 -2.8275471 -0.70921624 27
-5.2973552 -2.7917986 -0.55865216 35
-5.3162241 -2.8017428 -0.42021298 24
-6.8047581 -3.5862262 -0.17858386 10
-6.475728 -3.4128215 0 26
-37.820736 -19.932188 2.9894836 34
-37.389778 -19.705065 3.9430771 27
-37.336639 -19.677061 4.9354758 25
-41.405762 -21.821558 6.577878 23
-37.188057 -19.598755 6.9063344 26
-41.962574 -22.115009 8.9369221 11
-4.4792833 -2.3456953 -0.71061796 12
-5.272265 -2.7609611 -0.69597501 21
-5.3893237 -2.822262 -0.56756973 77
-5.1856813 -2.7156193 -0.40933099 4
-6.9961643 -3.6637266 -0.36828861 10
-6.6883636 -3.5025387 -0.17528795 11
-6.3942823 -3.3485351 0 15
-6.4456978 -3.3754604 0.16892818 10
-39.750534 -20.81642 2.0925276 26
-44.7075 -23.412268 3.52898 44
-37.061966 -19.40848 3.9031336 27
-36.780914 -19.261299 4.8553319 26
-36.874691 -19.310408 5.8500023 26
-37.305683 -19.53611 6.9186559 26
-4.4833999 -2.347851 -0.95353335 13
-42.225792 -22.112654 8.9806175 11
-5.2716208 -2.7407253 -0.69481355 23
-5.5142837 -2.8668864 -0.57983148 100
-5.105206 -2.654206 -0.40235534 10
-5.0926185 -2.6476619 -0.2676684 2
-6.4201593 -3.3378527 0 16
-6.468102 -3.3627782 0.16925313 27
-36.614384 -19.035887 1.9244547 29
-37.246593 -19.364573 3.9165101 27
-36.765633 -19.114519 4.8458076 26
-37.227036 -19.354406 5.8967648 26
-42.415203 -22.051743 7.8540912 22
-42.18832 -21.933786 8.9587698 11
-5.3097382 -2.7405605 -0.69876266 35
-5.3316545 -2.7518723 -0.55976689 32
-5.1467443 -2.6564329 -0.40500608 11
-5.7590899 -2.9724882 -0.30223331 9
-6.513586 -3.3619127 -0.17018156 18
-6.4193711 -3.3132846 0 18
-6.4158649 -3.311475 0.16762836 10
-40.269249 -20.78451 2.1133039 26
-37.601547 -19.407608 2.9589303 33
-37.633022 -19.423853 3.9510658 27
-36.882206 -19.036325 4.8537059 26
-37.33886 -19.272024 5.9053936 26
-37.427967 -19.318016 6.9199529 26
-42.562347 -21.968067 9.0243139 10
-5.268435 -2.7006369 -0.5523355 94
-6.5905633 -3.3783691 -0.17194559 51
-6.8130331 -3.4924088 0 8
-6.4304252 -3.2962813 0.16776763 8
-39.880894 -20.443226 2.0899191 26
-37.378773 -19.160624 3.9187393 27
-37.707726 -19.329247 4.9552217 25
-37.154598 -19.045708 5.8678169 26
-41.702023 -21.376751 7.6991038 23
-4.8430266 -2.4825695 -1.0253724 20
-5.6940036 -2.8962352 -0.59599471 30
-5.1428556 -2.6158957 -0.40347144 13
-6.7990136 -3.4582949 0 7
-6.8147821 -3.4663155 0.35654959 4
-35.90218 -18.26152 2.816627 30
-37.106869 -18.874281 3.8839977 27
-40.317898 -20.507561 5.2897358 23
-37.233662 -18.938774 5.8708787 26
-4.5074425 -2.292695 -1.0749035 27
-41.811188 -21.267118 7.7068858 23
-4.9313855 -2.5083323 -1.0424063 17
-42.716484 -21.727592 9.0294981 10
-4.6610761 -2.3544796 -0.85794187 64
-5.4238791 -2.739799 -0.71061003 15
-5.2114916 -2.6325145 -0.54471838 7
-6.8050742 -3.4374912 0 8
-6.8139486 -3.4419739 0.17723764 33
-11.557137 -5.8379316 0.60381442 1
-35.9566 -18.162991 2.816906 30
-37.488262 -18.936687 3.9183681 27
-37.62849 -19.007523 4.9299002 25
-37.332371 -18.857941 5.8781157 26
-4.461442 -2.2536371 -1.0624288 22
-37.344978 -18.864309 6.8739104 26
-42.808567 -21.624168 9.0361633 10
-4.6870375 -2.3511875 -0.86150849 100
-4.7355137 -2.375505 -0.74457616 25
-5.5007567 -2.7593787 -0.71966976 52
-5.7901888 -2.9045682 -0.60435498 30
-6.0353789 -3.0275645 -0.15676571 4
-6.7610168 -3.3915706 0 11
-7.1291456 -3.5762374 0.18517573 9
-11.528752 -5.7832394 0.60148525 4
-35.85025 -17.983782 2.8046288 30
-36.72044 -18.420301 3.8327217 28
-40.786919 -20.460196 5.3361955 23
-41.12019 -20.627375 6.465426 23
-4.4869537 -2.2508183 -1.0670029 27
-42.777821 -21.458902 7.8628459 22
-4.4815297 -2.2480974 -0.94464606 12
-42.647438 -21.393497 8.9895048 11
-4.6074266 -2.2941666 -0.84562063 90
-5.6811295 -2.8287933 -0.59209323 27
-5.6633263 -2.8199284 -0.44239557 23
-5.7317972 -2.854022 -0.29859981 11
-5.6935239 -2.8349648 -0.1476671 2
-6.8945832 -3.4330056 0 25
-7.1182475 -3.5443745 0.18461868 9
-35.249214 -17.551569 1.8363189 28
-35.883804 -17.86755 2.8030941 30
-36.66441 -18.256233 3.821203 28
-40.801216 -20.316067 5.3301558 23
-41.163479 -20.496447 6.4626427 23
-4.46209 -2.2217994 -1.0595181 20
-42.869564 -21.345955 7.8680334 22
-4.8858004 -2.4327767 -1.0283349 35
-42.67202 -21.247591 8.9813585 11
-5.8211021 -2.8782313 -0.60584128 37
-5.7695436 -2.8527381 -0.45006877 58
-5.4878168 -2.713439 0 11
-6.9542613 -3.4385192 0.18011577 9
-35.477177 -17.541613 1.8456355 29
-35.974697 -17.787611 2.806303 30
-36.774158 -18.182901 3.8273339 56
-40.861351 -20.203804 5.3306203 23
-41.667953 -20.602627 6.5327859 23
-42.410538 -20.969797 8.9139624 11
-4.5270519 -2.2207201 -0.8284359 16
-5.0792394 -2.4915929 -0.66159439 33
-5.7657533 -2.8283582 -0.59915304 100
-5.7247396 -2.8082392 -0.44588336 32
-5.7228122 -2.8072939 -0.14799204 9
-5.4891315 -2.692663 0 7
-6.8734779 -3.3717463 0.17774828 9
-35.526726 -17.427439 1.8453561 29
-36.068012 -17.692965 2.8092327 30
-36.895458 -18.098862 3.834022 28
-40.694553 -19.962486 5.3006535 23
-41.403515 -20.310265 6.4812918 23
-42.612759 -20.903452 7.7979975 22
-42.449734 -20.823481 8.9084082 11
-4.5882382 -2.2348602 -0.83848739 37
-4.8947277 -2.3841465 -0.76517373 21
-4.9736676 -2.4225969 -0.64695942 8
-5.8255472 -2.8375344 -0.60454077 30
-5.6984806 -2.7756422 -0.44323263 23
-5.2625585 -2.5633111 -0.2729789 15
-5.7557955 -2.8035593 -0.14864194 11
-5.4876394 -2.6729445 0 10
-6.8756771 -3.3490365 0.17756259 11
-35.718945 -17.398148 1.8528094 29
-36.260777 -17.662066 2.8203938 30
-40.719749 -19.833963 4.2256546 25
-35.840767 -17.457485 4.6620569 55
-35.908325 -17.490391 5.6134086 28
-42.374668 -20.640047 7.7438493 22
-42.624344 -20.76166 8.9328489 22
-4.8991694 -2.3704622 -0.76489544 19
-5.0460262 -2.4415185 -0.52298164 18
-5.296227 -2.5625782 -0.27437642 52
-5.7595153 -2.7867401 -0.14854909 18
-5.4982185 -2.6603119 0 7
-6.8934197 -3.3353796 0.17779469 9
-35.706818 -17.276735 1.8498281 29
-34.853966 -16.864084 2.7075279 27
-40.726723 -19.705614 4.2210097 25
-35.875622 -17.35841 4.6606631 55
-35.96825 -17.403229 5.6156349 56
-42.487179 -20.557411 7.754549 22
-42.544086 -20.584948 8.904705 11
-4.8905225 -2.3473458 -0.76239032 18
-5.1594601 -2.4764299 -0.66926032 33
-5.030333 -2.4144518 -0.52056646 15
-5.1226096 -2.4587426 -0.39733288 31
-5.2268038 -2.5087533 -0.27037024 14
-5.7862673 -2.7772841 -0.14901331 27
-5.5588384 -2.6681228 0 45
-6.8840365 -3.3041894 0.17728406 9
-6.9288468 -3.3256977 0.35841292 4
-35.074047 -16.834789 2.7205024 28
-35.58036 -17.077808 3.6820507 28
-36.221886 -17.385727 4.6985283 27
-35.451382 -17.015902 5.5265646 27
-42.412773 -20.35722 7.7292585 22
-42.643986 -20.468197 8.9121113 11
-4.6592679 -2.2203622 -0.72537029 100
-4.8884015 -2.3295553 -0.63325363 18
-5.0802002 -2.4209564 -0.52502531 39
-5.3365788 -2.543133 -0.41337687 34
-5.1075425 -2.4339864 -0.26384854 4
-5.5774021 -2.6578968 -0.14344272 32
-5.5012698 -2.6216161 0 8
-13.109602 -6.2473474 0.33716005 20
-35.012859 -16.685287 2.7121317 27
-35.561398 -16.946693 3.6751769 28
-35.744865 -17.034124 4.6304641 27
-35.219845 -16.783928 5.4831424 27
-43.183571 -20.57902 9.0128345 10
-4.6439667 -2.1971779 -0.7220301 25
-4.7512374 -2.2479303 -0.61466956 40
-5.0437393 -2.3863201 -0.52056646 34
-4.9901814 -2.3609807 -0.38603234 12
-5.6145554 -2.6563878 -0.28965577 18
-5.6748929 -2.6849351 0 10
-12.785402 -6.0490961 0.32838637 4
-35.738838 -16.908945 1.8437722 29
-35.167522 -16.638641 2.7205024 28
-35.259377 -16.6821 3.6391349 27
-36.37767 -17.211193 4.7061944 27
-42.724854 -20.214207 6.6427326 22
-36.283764 -17.166765 6.594739 27
-4.7171855 -2.2137077 -0.73232889 23
-4.7079244 -2.2093618 -0.60816509 24
-4.9777069 -2.3359668 -0.38449767 10
-5.6998706 -2.6748679 -0.1461816 10
-5.1618638 -2.422389 0 6
-7.0519834 -3.3093951 0.18085852 9
-35.829769 -16.814398 1.8457288 58
-35.884281 -16.839981 2.7718432 29
-35.275558 -16.554316 3.6354191 27
-35.699665 -16.753342 4.6116476 26
-35.352894 -16.590609 5.4884305 27
-36.380398 -17.072802 6.6025205 27
-42.812084 -20.091099 8.9102592 11
-4.7768178 -2.2264521 -0.74067926 47
-4.8235226 -2.2482212 -0.62233549 72
-4.9202256 -2.293294 -0.50644684 22
-4.9964638 -2.3288281 -0.38547429 12
-5.5772491 -2.5995295 -0.28695393 16
-5.1377983 -2.3947036 -0.13160521 14
-5.1355577 -2.3936594 0 4
-35.83926 -16.70451 1.8439586 58
-36.00058 -16.779699 2.7774239 29
-35.179794 -16.397137 3.6211138 26
-36.409576 -16.970333 4.6975989 27
-36.130405 -16.840212 5.6022744 28
-35.94915 -16.75573 6.5162721 28
-42.791496 -19.944916 8.8950777 11
-4.8283429 -2.2330534 -0.74763793 19
-4.7724762 -2.2072158 -0.61490184 32
-5.0734091 -2.3463936 -0.5214954 18
-5.0359468 -2.3290679 -0.3879855 26
-5.3528366 -2.4756258 -0.27502859 13
-5.2628417 -2.4340041 -0.13462262 12
-5.5020595 -2.5446396 0 3
-5.182992 -2.3970745 0.13258007 6
-35.85965 -16.584679 1.8424679 57
-35.128487 -16.246525 2.7064116 27
-35.499405 -16.41807 3.6489813 27
-35.385201 -16.36525 4.5591474 26
-36.093929 -16.693029 5.5889139 28
-36.206493 -16.74509 6.5538845 27
-36.116352 -16.7034 7.497179 17
-4.9378834 -2.265955 -0.63534439 17
-5.069489 -2.3263478 -0.52038068 13
-5.4907241 -2.5196493 -0.42244521 49
-5.4563937 -2.5038953 -0.27996641 94
-5.3554511 -2.4575734 -0.13680443 4
-5.1660314 -2.3706503 0 5
-5.1955328 -2.3841882 0.13271934 7
-6.5476727 -3.0046744 0.3359597 4
-34.940807 -16.034056 2.6882751 27
-35.54615 -16.311844 3.6487956 27
-35.760384 -16.410152 4.6011939 53
-37.234135 -17.086445 5.7575917 27
-42.828129 -19.653484 7.7419038 22
-36.03714 -16.537155 7.4705176 34
-5.070734 -2.3097987 -0.65160543 21
-5.4741359 -2.4935544 -0.42063153 15
-5.7669859 -2.6269524 -0.29552528 25
-6.6505537 -3.0294313 0.16967092 8
-6.4651332 -2.9449694 0.33130136 2
-6.5435438 -2.9806867 0.50280464 3
-35.742798 -16.281404 4.5930634 26
-36.043484 -16.418371 5.5663676 28
-35.867706 -16.338303 6.4754181 27
-44.598694 -20.315403 9.2335358 20
-5.1394629 -2.3216369 -0.52613997 7
-5.0997367 -2.3036914 -0.26096037 64
-5.7234416 -2.5854361 -0.14581022 15
-6.6946406 -3.0241535 0 36
-6.5071259 -2.9394479 0.33297837 4
-5.9615593 -2.6930003 0.61030006 4
-35.784721 -16.164944 4.5919018 53
-35.941467 -16.23575 5.5427079 55
-36.33073 -16.411591 6.5496693 55
-44.665878 -20.176805 9.2342758 10
-4.7908721 -2.1480815 -0.73789579 22
-5.2166705 -2.3389964 -0.66856343 15
-5.0078282 -2.245358 -0.51202035 34
-5.0788045 -2.2771816 -0.25956288 58
-5.9824147 -2.6823328 -0.1522164 19
-6.3254137 -2.8361232 0.16094367 10
-13.406149 -6.01091 0.68514913 8
-35.894974 -16.094215 4.600265 26
-36.340874 -16.294144 5.5972643 56
-36.615917 -16.417465 6.592793 27
-4.7610331 -2.1177585 -0.73232889 20
-5.0275674 -2.236316 -0.64347494 19
-4.9744406 -2.2126846 -0.50793314 33
-4.9997458 -2.2239406 -0.25518402 8
-5.9757323 -2.6580698 -0.15184504 13
-6.2605853 -2.7847755 0 15
-6.6754284 -2.9693022 0.16962451 6
-6.5896611 -2.9311519 0.33633238 3
-6.0174699 -2.6766353 0.46053225 13
-35.383297 -15.738871 3.6129391 26
-35.91534 -15.975529 4.5967803 53
-36.622498 -16.290079 5.6331711 27
-44.443478 -19.768936 7.9915695 21
-4.7233777 -2.0842419 -0.84821463 22
-4.7310567 -2.0876305 -0.726762 24
-4.9941988 -2.2037446 -0.63836426 38
-4.9700537 -2.1930904 -0.50681847 22
-4.7969446 -2.1167042 -0.36664 4
-4.8326826 -2.1324739 -0.24633318 52
-6.179327 -2.7266955 -0.15681215 25
-6.3328638 -2.7944453 0 53
-13.0611 -5.7633529 0.33145016 19
-6.0253863 -2.6587675 0.46053225 6
-35.522766 -15.674808 3.6224144 26
-35.744503 -15.772653 4.5689044 26
-36.871803 -16.270086 5.6640673 27
-44.381729 -19.583923 9.1398487 20
-5.158174 -2.2599869 -0.52539682 31
-5.2264314 -2.2898929 -0.39900702 4
-5.0907745 -2.2304566 -0.2591902 4
-6.2412357 -2.7345159 0 17
-6.6223989 -2.9015176 0.33717087 8
-35.667641 -15.627313 3.6330037 27
-35.731087 -15.65511 4.5619349 26
-35.452141 -15.532893 5.4397202 26
-43.331226 -18.985012 7.7723823 22
-44.225819 -19.376966 9.0972633 10
-4.9831219 -2.1646564 -0.63534439 12
-5.0410485 -2.1898198 -0.51276356 42
-5.1512523 -2.2376921 -0.39272892 8
-5.1014214 -2.2160454 -0.25937656 2
-6.2773113 -2.7268493 0 20
-6.5158615 -2.8304749 0.16493592 24
-13.34542 -5.7972193 0.67853427 7
-35.081585 -15.239359 2.6746027 27
-35.61245 -15.469965 3.6224144 53
-34.599445 -15.029919 4.4114041 24
-35.669701 -15.494834 5.4656067 26
-44.326134 -19.255169 9.1054106 10
-4.934051 -2.1280007 -0.62837535 12
-5.0138507 -2.1624177 -0.50941944 24
-5.0691581 -2.186271 -0.38603234 18
-5.0833573 -2.192395 -0.25816539 6
-5.9063597 -2.5473466 -0.14933828 6
-6.8427186 -2.9511876 0 15
-6.638917 -2.8632903 0.16786048 42
-13.344042 -5.7551355 0.67769575 13
-35.060909 -15.121376 2.6699986 53
-35.629059 -15.366413 3.6199989 26
-34.979774 -15.086385 4.454844 24
-36.590351 -15.781008 5.6003261 28
-44.324062 -19.11647 9.0946712 21
-4.947279 -2.1173413 -0.62930453 20
-5.0692992 -2.1695635 -0.51443559 26
-5.0880823 -2.1776025 -0.38700894 16
-6.7222247 -2.8769844 0 57
-6.4502001 -2.7605631 0.16289337 24
-13.385775 -5.728857 0.67900014 7
-35.523029 -15.203181 2.7019472 55
-35.52354 -15.203401 3.6049507 53
-34.685738 -14.844837 4.4121003 24
-36.479511 -15.612537 5.5766668 28
-44.371845 -18.990307 9.0935602 21
-5.018281 -2.1280687 -0.63743508 19
-5.0507989 -2.1418581 -0.51183462 28
-5.0989485 -2.1622765 -0.38728791 17
-6.3271346 -2.6831052 -0.320494 18
-6.9416046 -2.9436793 -0.17505583 20
-6.7556643 -2.8648291 0 32
-6.4169803 -2.7212055 0.16182567 18
-35.911217 -15.228627 2.7276175 56
-35.665424 -15.124396 3.6142397 26
-34.75489 -14.738273 4.4146562 48
-37.687088 -15.981709 5.7531381 54
-36.647354 -15.540796 6.5399418 28
-45.522049 -19.304228 9.3161135 11
-4.9707417 -2.0925705 -0.63069832 18
-5.0453777 -2.1239905 -0.5107199 27
-6.370965 -2.6820331 -0.32235736 25
-6.5143814 -2.7424083 0.16410033 8
-6.5495725 -2.7572229 0.33139452 9
-6.5535908 -2.7589145 0.49722415 8
-35.0662 -14.762082 3.549587 25
-35.219948 -14.826806 4.4687824 49
-36.731571 -15.463166 6.5477238 27
-6.545918 -2.73419 0 8
-6.4576993 -2.6973414 0.32636353 15
-6.5741563 -2.7459848 0.49820071 5
-35.346165 -14.763876 3.5737386 51
-35.451847 -14.808019 4.4929419 25
-36.367649 -15.190544 5.5390902 27
-36.787361 -15.365854 6.5499935 27
-4.630599 -1.9171106 -0.35045651 49
-5.5598106 -2.3018126 -0.28061858 18
-6.5508618 -2.7121172 -0.16461097 10
-6.3327279 -2.6218076 0 72
-6.3310213 -2.6211011 0.15908679 22
-37.208855 -15.404808 2.8160689 30
-35.348213 -14.634485 3.5692801 77
-35.367874 -14.642626 4.4764481 24
-36.422508 -15.079254 5.5402031 55
-36.693222 -15.191332 6.524703 56
