# .PCD v0.7 - Point Cloud Data file format
VERSION 0.7
FIELDS x y z intensity
SIZE 4 4 4 4
TYPE F F F F
COUNT 1 1 1 1
WIDTH 1378
HEIGHT 1
VIEWPOINT 0 0 0 1 0 0 0
POINTS 1378
DATA ascii
-1.7194289 -5.5614495 -1.8164403 11
-3.7138324 -12.012297 0.87921065 16
-1.8552133 -6.0006409 -1.8010147 19
-3.6791587 -11.900146 1.1620781 7
-1.9933605 -6.4474745 -1.766682 26
-4.1189899 -13.322768 1.6307559 8
-2.1050396 -6.8086977 -1.6886162 17
-5.1544347 -16.671888 2.4525087 12
-2.3102036 -7.4722953 -1.662462 36
-2.5868638 -8.3671455 -1.6500757 72
-3.9737618 -12.853033 2.5347323 5
-2.8078575 -8.987361 -1.5469542 28
-3.385386 -10.835908 -1.5954806 16
-3.6905224 -11.812585 -1.4472378 100
-5.0612745 -16.200073 -1.5834361 8
-3.4745846 -11.121413 -0.81475562 7
-3.4923949 -11.178421 -0.54614419 21
-4.2167172 -13.496824 -0.3282935 11
-3.8212373 -12.230976 0 11
-3.6592185 -11.712388 0.28488931 15
-3.7575119 -12.027004 0.58760339 12
-1.7393386 -5.5672569 -1.8200147 9
-3.7506478 -12.005033 0.87948966 11
-1.8454907 -5.9070272 -1.7745534 48
-3.7102945 -11.875872 1.1607777 4
-1.9997888 -6.4009027 -1.7555389 21
-4.9670992 -15.898639 1.9478472 8
-2.1333575 -6.8284278 -1.6950718 17
-4.5849185 -14.675359 2.1608019 9
-2.3609505 -7.5569057 -1.6828375 32
-2.6468451 -8.4719944 -1.6722939 31
-4.0400138 -12.931233 2.5525069 1
-2.953927 -9.3572702 -1.6121265 49
-3.3889029 -10.73516 -1.5821199 22
-3.8003044 -12.038373 -1.4762756 17
-3.5087216 -11.114715 -1.087393 10
-4.8907733 -15.492694 -1.1360539 6
-3.5844855 -11.354714 -0.55527455 7
-3.7758136 -11.960793 -0.29120266 9
-3.8418555 -12.169996 0 8
-3.6999724 -11.720547 0.28535354 18
-3.8424964 -12.172026 0.5952431 11
-1.7546996 -5.5584307 -1.8188233 8
-3.8084724 -12.064247 0.8846516 11
-1.8514336 -5.8648586 -1.7635279 17
-3.7551057 -11.895195 1.1637503 6
-2.03508 -6.4466023 -1.7697212 23
-4.9837508 -15.787222 1.936 8
-2.1793857 -6.9037247 -1.7153611 29
-4.6266513 -14.656024 2.1599667 12
-2.3804166 -7.5405393 -1.6807584 86
-4.4623785 -14.135651 2.4353745 9
-2.663095 -8.4359903 -1.6667393 19
-4.3073382 -13.644524 2.6958146 1
-2.9165137 -9.1496696 -1.577757 100
-3.4110494 -10.701124 -1.5785015 19
-3.6125004 -11.333115 -1.3910209 11
-3.6234107 -11.367343 -0.83428746 9
-3.5997987 -11.293267 -0.55275899 7
-3.8225596 -11.992111 -0.29222393 2
-3.8776486 -12.164937 0 11
-3.7381537 -11.727314 0.28577131 15
-3.8928549 -12.212642 0.59775859 11
-1.7707951 -5.5553279 -1.819419 6
-3.8348773 -12.030755 0.88297749 11
-1.884737 -5.912786 -1.7795149 16
-5.3177848 -16.682924 1.6335977 6
-2.0618889 -6.4685454 -1.7773186 20
-2.1992474 -6.899466 -1.7158222 14
-4.6789899 -14.6789 2.1652553 9
-2.3586881 -7.3996625 -1.6508191 54
-4.1913648 -13.149125 2.2674177 4
-2.6812706 -8.4116659 -1.6634065 46
-4.1335258 -12.967673 2.5643566 4
-2.9466732 -9.1503696 -1.5793782 27
-3.6266248 -11.26184 -1.3835872 28
-3.5720692 -11.092427 -1.0872073 30
-3.5359204 -10.980173 -0.53794545 7
-3.8562849 -11.975008 -0.29208466 7
-3.9229207 -12.181933 0 5
-3.7692549 -11.704752 0.28549278 18
-1.7544974 -5.4482803 -1.7860571 10
-4.9413953 -15.344625 1.1272645 17
-1.8999147 -5.899848 -1.7773098 15
-3.8546853 -11.970041 1.1732253 1
-2.0698037 -6.4274077 -1.7676952 26
-3.8312163 -11.897161 1.4616405 7
-2.2161293 -6.8817959 -1.7130555 21
-4.0498705 -12.576154 1.8568478 10
-2.3572459 -7.3200083 -1.6346018 66
-5.4710965 -16.989519 2.9324362 9
-2.7062161 -8.4036741 -1.6634065 40
-4.1780076 -12.974061 2.5680597 5
-2.9536622 -9.0796537 -1.5686783 61
-3.4849045 -10.712711 -1.5832334 21
-3.756501 -11.547607 -1.4200585 11
-3.6333017 -11.168888 -1.0957533 52
-5.8830619 -18.084724 -1.3298374 4
-3.7427664 -11.505386 -0.56421852 10
-3.6447487 -11.204077 0 7
-3.8033478 -11.691616 0.28544638 18
-1.7907356 -5.5047798 -1.8063126 11
-3.7667148 -11.579004 0.85144752 10
-1.9191953 -5.8996692 -1.7789637 16
-3.8994236 -11.986956 1.176012 9
-2.0385883 -6.2666869 -1.7251488 21
-3.8646548 -11.880075 1.4609436 3
-2.2377417 -6.8788915 -1.7139778 21
-3.8469968 -11.825794 1.747736 9
-2.3583777 -7.2497306 -1.6204638 48
-4.2668753 -13.116515 2.2661207 9
-2.7299221 -8.3918695 -1.662666 51
-4.2395873 -13.03263 2.5821314 8
-2.8435409 -8.658865 -1.4973451 24
-3.7222593 -11.33465 -1.1130313 10
-5.6444907 -17.188036 -0.42002258 4
-3.6897509 -11.235659 0 15
-3.8522027 -11.73034 0.28665334 15
-3.836591 -11.682801 0.57344204 19
-1.8168234 -5.5324078 -1.817036 8
-1.9506589 -5.9399505 -1.7927455 17
-3.8968472 -11.866287 1.1652366 6
-2.0470257 -6.233397 -1.7175514 23
-3.9021542 -11.882448 1.4625697 5
-2.222333 -6.7672248 -1.687694 17
-2.3743415 -7.2301059 -1.6175531 60
-5.4801898 -16.687723 2.8857455 18
-2.7613182 -8.4084883 -1.6674799 27
-4.2618613 -12.977792 2.5736144 4
-3.0261397 -9.1181593 -1.5784054 100
-3.4966359 -10.535827 -1.5601306 16
-3.7673955 -11.351661 -1.3986868 11
-3.7101796 -11.179261 -1.0989118 35
-3.7454939 -11.285668 -0.83149719 48
-3.7335732 -11.249749 -0.55275899 14
-4.0042901 -12.065455 -0.29514849 11
-3.8277168 -11.533417 0 13
-3.8909254 -11.723873 0.28679261 7
-3.8827145 -11.699132 0.57483953 10
-1.8323913 -5.5212369 -1.8152488 6
-3.9107735 -11.783677 0.8681891 5
-1.9705217 -5.9374423 -1.793848 13
-3.9253261 -11.827526 1.1626356 4
-2.0818346 -6.2728429 -1.7302139 23
-3.9407167 -11.8739 1.4630343 7
-2.2337742 -6.7306571 -1.6803161 21
-3.8927755 -11.729447 1.7368804 9
-2.4438758 -7.3637209 -1.6491556 27
-5.0414944 -15.190688 2.629595 2
-2.7747204 -8.3605995 -1.6597035 27
-5.3228569 -16.038471 3.1838758 7
-3.0518789 -9.1158209 -1.5793782 31
-3.4317772 -10.250559 -1.5192137 40
-3.7983601 -11.345526 -1.3991513 11
-3.76472 -11.245044 -1.106343 7
-3.779459 -11.289068 -0.83247381 13
-3.7458854 -11.188786 -0.5502435 23
-3.8610709 -11.53284 0 15
-4.2015362 -12.549794 0.30726454 4
-3.9088879 -11.675667 0.57418734 13
-1.8425957 -5.5037479 -1.8110785 6
-3.8858688 -11.60691 0.85591191 10
-1.9903306 -5.945025 -1.797707 17
-2.0896492 -6.2416854 -1.7231228 21
-3.9755709 -11.874846 1.4644281 7
-2.2625072 -6.7580042 -1.6886162 17
-3.8706522 -11.561459 1.7134993 6
-2.4656289 -7.3647189 -1.6508191 28
-3.8131256 -11.389629 1.9733311 6
-2.7941015 -8.3458519 -1.6582222 46
-4.1643219 -12.438637 2.4714103 9
-3.1313777 -9.2618999 -1.6062902 13
-3.4310956 -10.148397 -1.5055748 32
-5.3581161 -15.848084 -1.5607704 16
-3.7771552 -11.171963 -0.82466102 16
-3.7918661 -11.215474 -0.5521068 26
-3.9516439 -11.688061 0 18
-5.9153028 -17.496117 0.42879626 7
-3.9415956 -11.65834 0.57390785 12
-1.8656447 -5.5181513 -1.8176318 5
-3.9196529 -11.593438 0.85577244 10
-1.995647 -5.902668 -1.7866814 17
-5.4997072 -16.266878 1.6020144 6
-2.105062 -6.2262931 -1.7205902 23
-4.0031538 -11.840415 1.4616405 3
-2.2800565 -6.7438869 -1.6867718 14
-3.9005003 -11.536789 1.711551 9
-2.4880972 -7.3592234 -1.6512347 42
-3.8456399 -11.374525 1.9726826 12
-2.830184 -8.3710384 -1.6648878 46
-4.9163117 -14.541327 2.892076 6
-3.1084707 -9.1050196 -1.5806751 100
-3.4445536 -10.08944 -1.4983377 32
-3.6056871 -10.561417 -1.3050692 10
-3.8024316 -11.1377 -1.0979828 10
-3.8238225 -11.200356 -0.82759076 39
-3.8231895 -11.198503 -0.55182731 7
-3.8754098 -11.35146 -0.27848312 13
-5.2276235 -15.312229 0 16
-4.1867862 -12.263514 0.30085835 12
-4.0058608 -11.733564 0.57819355 4
-1.8807755 -5.5089784 -1.8164403 5
-3.9437201 -11.551548 0.85354024 10
-1.9932747 -5.8384995 -1.7690406 13
-5.5563116 -16.274988 1.6044297 3
-2.1204007 -6.2108645 -1.7180579 21
-4.0312071 -11.807806 1.4590851 10
-2.299427 -6.73525 -1.6863105 17
-4.6622734 -13.656261 2.0280306 11
-2.5225625 -7.3888364 -1.6595513 30
-3.8946748 -11.407889 1.9804643 4
-2.8238931 -8.2714634 -1.6467428 29
-4.2501273 -12.449046 2.478446 5
-3.0923786 -8.9707479 -1.5589509 13
-3.4899645 -10.124113 -1.505018 32
-3.6214697 -10.5056 -1.2994941 31
-3.8640151 -11.209206 -1.1061573 15
-3.8875966 -11.277613 -0.83414787 28
-5.4665408 -15.858007 -0.78222901 16
-3.9084206 -11.338021 -0.27843672 9
-5.2736835 -15.298543 0 16
-4.1749334 -12.111156 0.29742315 16
-4.0940456 -11.876506 0.58583319 6
-4.0254412 -11.677489 0.86372471 2
-1.9999373 -5.8016615 -1.7596689 16
-4.494173 -13.037243 1.2865534 2
-2.1432326 -6.21735 -1.7216033 21
-4.076581 -11.825842 1.4628021 14
-2.2940307 -6.6548033 -1.6678659 16
-4.045054 -11.734385 1.7443957 2
-2.4960198 -7.2407579 -1.6279486 54
-4.7157488 -13.680018 2.3773353 9
-2.8426571 -8.2463255 -1.6434101 27
-4.3120255 -12.508847 2.492888 5
-3.168932 -9.1050529 -1.5839176 33
-3.6454415 -10.474172 -1.2969388 10
-3.9018381 -11.210857 -1.1074578 10
-3.9249754 -11.277335 -0.83498496 7
-4.3275857 -12.434125 -0.61396962 11
-3.9420433 -11.326376 -0.27843672 24
-3.9950407 -11.478649 0 10
-5.2935767 -15.209634 0.75101811 20
-5.3356061 -15.330394 1.1350774 17
-2.0158782 -5.7920704 -1.7585664 15
-2.1584904 -6.2018275 -1.7190708 21
-2.3003321 -6.6093702 -1.6581824 16
-4.0681338 -11.688663 1.7393855 14
-2.6062312 -7.4882874 -1.6853322 30
-2.8328717 -8.1394768 -1.6237839 30
-4.3323231 -12.447737 2.4832602 4
-3.1986408 -9.1134853 -1.5868356 24
-3.6925869 -10.520823 -1.3039079 13
-3.9377699 -11.219393 -1.1093155 10
-6.7731729 -19.297949 -1.4301472 13
-4.0716543 -11.600853 -0.57334888 7
-6.834897 -19.473812 -0.47916368 16
-4.0230918 -11.462489 0 7
-4.161725 -11.85748 0.29175973 11
-4.1550193 -11.838374 0.5850879 4
-4.0232024 -11.462805 0.84949434 15
-2.0361288 -5.8012857 -1.7629766 16
-5.3589544 -15.268596 1.5096799 38
-2.1657491 -6.1705966 -1.7119797 23
-4.1655903 -11.868493 1.4709325 5
-2.2995815 -6.551909 -1.6452711 19
-4.264009 -12.148904 1.8095288 22
-2.5953772 -7.3946815 -1.6657885 39
-2.8450592 -8.1060696 -1.6185998 44
-4.3824711 -12.486423 2.4932582 2
-3.2206612 -9.0847902 -1.5835934 21
-3.4808998 -9.8188677 -1.4641011 74
-4.9475808 -13.956059 -1.7315748 10
-7.0497231 -19.88575 -1.9683802 26
-5.3231502 -15.015459 -1.1140109 25
-4.2757854 -12.061069 -0.29709819 2
-5.3174367 -14.999343 0 3
-4.205636 -11.863193 0.29222393 15
-4.0885262 -11.53285 0.8556329 7
-2.0402112 -5.7549958 -1.7508485 16
-2.1631429 -6.1017599 -1.6947587 26
-4.1617026 -11.739266 1.4565299 7
-2.2811372 -6.4345965 -1.6176039 21
-4.3100953 -12.157849 1.812869 10
-2.6055217 -7.3496151 -1.6574723 60
-4.3258672 -12.202339 2.1270213 6
-2.9112265 -8.2119427 -1.6415585 21
-4.6068702 -12.994987 2.5976841 19
-3.2490847 -9.0893364 -1.585863 25
-3.5245938 -9.860075 -1.4716165 26
-3.7430911 -10.471322 -1.3004233 31
-4.1223059 -11.532178 -1.1425709 7
-5.3611002 -14.997713 -1.1137319 20
-4.1525245 -11.616715 -0.57530534 10
-5.2415042 -14.663142 -0.36153138 3
-4.0742335 -11.397696 0 10
-5.6850262 -15.903899 0.39212319 13
-5.693162 -15.926659 0.78875065 2
-5.6559167 -15.822464 1.174978 13
-2.0449169 -5.7206688 -1.7420281 16
-4.3166914 -12.075973 1.1964483 6
-2.1882279 -6.1215825 -1.7018497 19
-4.128901 -11.550628 1.4344612 8
-2.2855294 -6.3937836 -1.6088426 21
-5.4785533 -15.326289 2.2874494 16
-2.5911713 -7.2488194 -1.6362652 42
-2.936024 -8.2135468 -1.6434101 27
-4.6243372 -12.936614 2.5884264 5
-3.2083879 -8.8921595 -1.5531148 61
-3.4066248 -9.4415808 -1.4106587 100
-3.79774 -10.52557 -1.3085538 26
-5.6359496 -15.620233 -1.5492519 3
-5.6249666 -15.589793 -1.158934 6
-5.4088235 -14.990745 -0.74319208 14
-4.145606 -11.489693 -0.28358951 2
-4.0184321 -11.137226 0 12
-4.2820063 -11.867731 0.29292026 15
-4.6283855 -12.827733 0.635957 7
-5.7116404 -15.830012 1.1767917 9
-2.0553563 -5.6964922 -1.7365154 16
-4.3153296 -11.960088 1.1862301 4
-2.2030978 -6.1059632 -1.6993172 21
-2.309113 -6.3997884 -1.6120704 21
-4.4088502 -12.219284 1.825673 12
-2.6266103 -7.2797427 -1.6449974 66
-5.4341645 -15.060979 2.6305676 7
-2.9410365 -8.151186 -1.6326714 29
-5.1182966 -14.18554 2.8413441 19
-3.2631209 -8.9604864 -1.5667328 33
-3.418359 -9.3867683 -1.4039783 74
-3.8391497 -10.542253 -1.3120383 5
-4.9109159 -13.48531 -1.3389444 6
-5.4423409 -14.944595 -0.74170142 14
-4.182416 -11.484859 -0.28377521 9
-4.0473537 -11.113979 0 12
-4.310358 -11.836185 0.29245603 15
-4.6671095 -12.815821 0.63605016 7
-5.1885285 -14.24763 1.0602984 3
-2.0761964 -5.7012076 -1.7398231 13
-4.3228598 -11.870515 1.1786129 6
-2.1947229 -6.0266795 -1.679057 22
-4.1701813 -11.451262 1.4251691 9
-2.3234303 -6.3801088 -1.6088426 15
-4.5176015 -12.405273 1.855456 10
-2.6394958 -7.2480206 -1.6395917 12
-4.6738534 -12.834338 2.2440724 9
-2.9611735 -8.1313429 -1.6304495 40
-5.5181527 -15.152773 3.0383458 4
-3.2649934 -8.8883533 -1.5557086 22
-3.4370465 -9.3567371 -1.4009166 26
-5.0912023 -13.859876 -1.7266964 3
-4.9414268 -13.45214 -1.0021216 10
-4.549952 -12.38642 -0.61536711 8
-4.2468739 -11.561346 -0.28595701 9
-4.0604439 -11.053823 0 10
-4.3654552 -11.884162 0.29394153 16
-4.6298599 -12.603955 0.62617445 7
-4.3848882 -11.937064 0.88925552 8
-2.0881314 -5.6845598 -1.7365154 13
-4.3532443 -11.85092 1.1778698 6
-2.2102094 -6.0168948 -1.6780441 22
-4.1767998 -11.370581 1.416574 3
-2.3231196 -6.3242726 -1.5963925 18
-4.2537971 -11.580193 1.7338185 9
-2.586875 -7.0422993 -1.5946828 42
-4.695384 -12.782333 2.2372632 9
-3.0116539 -8.1986828 -1.6456319 27
-4.6455646 -12.646708 2.5384355 6
-3.2838056 -8.8582706 -1.5521419 24
-3.4682357 -9.3557816 -1.4023082 47
-6.9120574 -18.645706 -1.8552378 5
-5.7386069 -15.48025 -1.1544696 12
-4.2283597 -11.406264 -0.56729305 7
-4.0848813 -11.019222 0 5
-4.4688072 -12.054886 0.29849085 20
-4.636682 -12.50774 0.62207514 7
-4.4195943 -11.922131 0.88911599 11
-2.0922923 -5.6440887 -1.7260412 15
-4.4825239 -12.091888 1.2031364 1
-2.228725 -6.0121245 -1.6785506 20
-2.3466094 -6.3301253 -1.5996203 36
-4.3046598 -11.612089 1.7404989 9
-2.5948391 -6.9997406 -1.5867822 22
-4.5144615 -12.178041 2.1338303 14
-3.0427985 -8.2081385 -1.6493349 23
-5.3997035 -14.566037 2.9268844 3
-3.2962444 -8.8115196 -1.5456572 22
-3.4446287 -9.2081804 -1.3817106 18
-3.5238411 -9.4199314 -1.176142 26
-5.0493398 -13.497894 -1.3445181 9
-7.0148125 -18.751995 -1.4000125 9
-5.7965417 -15.495314 -0.77151477 15
-4.4162846 -11.805612 -0.29264173 9
-4.0194535 -10.744802 0 7
-4.2446494 -11.346796 0.28126845 10
-5.5802474 -14.917117 0.74272627 4
-2.1063347 -5.6306534 -1.7238361 16
-4.521172 -12.085997 1.2038796 6
-2.2113023 -5.911253 -1.6522124 22
-4.2734318 -11.423738 1.4263307 6
-2.3994737 -6.4142723 -1.6226763 25
-4.2107186 -11.256092 1.6890049 4
-2.6128542 -6.9846811 -1.5851189 22
-5.5131021 -14.737623 2.5851741 7
-3.0705819 -8.2082787 -1.6511865 23
-5.4669995 -14.614382 2.9398453 9
-3.3298948 -8.8262854 -1.5498723 22
-3.4759231 -9.2133503 -1.3839374 36
-3.4302299 -9.0922356 -1.1364185 47
-5.8440204 -15.490275 0 8
-4.2678504 -11.312449 0.28071138 10
-4.5309334 -12.009782 0.59859711 8
-4.4269176 -11.734076 0.8769784 16
-2.1458025 -5.6877065 -1.7431308 16
-4.6048126 -12.205608 1.2170702 14
-2.2161913 -5.8742809 -1.6436019 22
-4.6685348 -12.374511 1.5466628 15
-2.4421072 -6.4730973 -1.6392765 22
-2.6344211 -6.9828491 -1.5863664 24
-5.500596 -14.579989 2.5602074 19
-3.0553355 -8.0985327 -1.6308198 23
-4.7918262 -12.701309 2.5576913 11
-3.3229487 -8.7339478 -1.5352814 19
-3.4995248 -9.1980543 -1.3831024 24
-3.4541938 -9.078908 -1.1359539 30
-5.0148892 -13.180997 -1.3157215 15
-4.7469988 -12.476881 -0.93348116 6
-4.3271718 -11.37342 -0.56747931 10
-5.3069201 -13.948563 0 14
-4.2837815 -11.259374 0.27969009 10
-4.2461843 -11.160554 0.55685836 5
-2.1288619 -5.5954423 -1.7166696 22
-4.3577561 -11.453807 1.143314 5
-2.2380908 -5.8825359 -1.6476539 22
-2.4580977 -6.4607964 -1.6378932 22
-4.3094368 -11.326805 1.7032006 9
-2.6205192 -6.8877006 -1.5664068 48
-5.5749745 -14.653111 2.5757709 2
-3.107991 -8.1689577 -1.6467428 25
-4.8174906 -12.66216 2.5525069 9
-3.345417 -8.7105684 -1.5330117 27
-3.5433149 -9.2258415 -1.3889476 16
-3.5923781 -9.3535891 -1.1717283 52
-4.4408383 -11.562752 -1.1555758 7
-7.3334084 -19.094229 -1.4302868 9
-5.4824309 -14.27478 -0.71309918 3
-5.033133 -13.104928 -0.32592601 11
-4.5755701 -11.913557 0 5
-4.3341861 -11.285059 0.28066495 10
-4.2726288 -11.12478 0.5557403 5
-2.1484976 -5.5941114 -1.7183233 22
-4.4229894 -11.516277 1.1509311 13
-2.2461543 -5.8483834 -1.6400564 20
-4.3565774 -11.343359 1.4209877 6
-2.4602408 -6.405807 -1.6259041 21
-5.584094 -14.539483 2.1889148 9
-2.644248 -6.884913 -1.5676543 42
-5.5113058 -14.349962 2.5255136 2
-3.1357524 -8.1646585 -1.6478537 23
-4.6458464 -12.096538 2.4414158 5
-3.3540492 -8.6607046 -1.5258784 37
-3.5375941 -9.1346474 -1.3767004 18
-3.4893558 -9.0100889 -1.129914 45
-3.7913568 -9.7899046 -0.97945267 4
-7.4796476 -19.313675 -1.4482839 4
-4.7524452 -12.271591 -0.61369014 8
-5.0444374 -13.025563 -0.32430127 11
-6.007864 -15.513288 0 4
-4.3411326 -11.209517 0.27908662 10
-6.0338087 -15.580282 0.77915454 7
-4.3641486 -11.268947 0.84502989 7
-2.1710541 -5.6060176 -1.7238361 17
-4.5342388 -11.708147 1.1713674 9
-2.302305 -5.9449286 -1.668927 20
-4.3839331 -11.320034 1.4195938 1
-2.4732001 -6.3862081 -1.6226763 21
-4.2893152 -11.075714 1.6692423 18
-2.6189556 -6.7625728 -1.5414574 100
-5.3475204 -13.808174 2.4327805 4
-3.1620898 -8.1650343 -1.6497053 23
-5.5923915 -14.440471 2.9176269 6
-3.357403 -8.5979929 -1.5164753 21
-3.5602074 -9.1173544 -1.3755871 22
-3.4610336 -8.8633804 -1.1127238 10
-3.8469293 -9.8516226 -0.98669827 4
-7.5771766 -19.404434 -0.97145081 18
-4.6873317 -12.003814 -0.29918715 5
-5.203649 -13.326054 0 13
-5.0596995 -12.957413 0.32295501 9
-4.3274279 -11.082134 0.55480868 5
-2.1769102 -5.5748615 -1.7161183 16
-4.6306567 -11.858675 1.1877164 6
-2.3245273 -5.9528947 -1.6729791 18
-4.4783893 -11.468733 1.4398042 6
-2.4931474 -6.3847151 -1.6240596 25
-2.6250212 -6.7224317 -1.5339726 60
-5.3803158 -13.778481 2.4301867 4
-3.1662905 -8.1085711 -1.6400775 10
-7.3677559 -18.868128 3.8163552 5
-3.3771133 -8.5733032 -1.5138814 30
-3.5204642 -8.9372206 -1.3499793 45
-3.4589238 -8.7809906 -1.103664 15
-4.8964496 -12.430364 -1.2464241 8
-4.852355 -12.318422 -0.92580789 6
-4.8860149 -12.403873 -0.62170249 8
-4.7082715 -11.952645 -0.29825872 7
-4.6956134 -11.92051 0 11
-4.4752398 -11.36106 0.28349668 3
-2.1997836 -5.5844769 -1.7210798 15
-4.6709313 -11.857852 1.1890168 8
-2.335798 -5.92977 -1.6684206 18
-4.5153108 -11.462787 1.4407333 4
-2.5199265 -6.3972073 -1.6291319 22
-4.4103794 -11.196402 1.6912316 13
-2.6370692 -6.694591 -1.5293986 21
-5.4276843 -13.778982 2.4331048 9
-3.2004206 -8.1247425 -1.6452616 8
-4.75489 -12.070993 2.4443781 2
-3.3537252 -8.4361095 -1.491509 73
-3.487797 -8.7733593 -1.3268764 31
-3.4908962 -8.7811556 -1.1050578 17
-4.9281211 -12.396415 -1.2445663 14
-4.9588389 -12.473685 -0.9386431 4
-7.6158633 -19.157282 -0.96138883 18
-6.4409914 -16.201956 -0.4047963 4
-4.7382116 -11.918709 0 11
-4.4510794 -11.196444 0.27973652 21
-4.6341705 -11.656999 0.58499473 12
-4.3750997 -11.005321 0.82814884 7
-2.1974306 -5.5275149 -1.705644 17
-4.8317509 -12.154001 1.2202286 5
-2.3615634 -5.9403815 -1.6734855 22
-4.8110814 -12.102009 1.5229681 7
-2.5421689 -6.3946843 -1.6305153 26
-4.459434 -11.217459 1.6965202 4
-2.644357 -6.6517329 -1.5214978 33
-5.8668313 -14.757689 2.6091676 20
-3.2164907 -8.0909042 -1.6404477 10
-4.7935147 -12.05782 2.4447484 5
-3.3376231 -8.3277884 -1.4739997 33
-3.4864948 -8.6992426 -1.3171344 49
-3.5043185 -8.7437143 -1.1015732 10
-3.5025723 -8.739357 -0.8783862 2
-6.0290484 -15.043232 -1.1332636 3
-7.5177121 -18.757635 -0.94238281 5
-6.3671966 -15.886955 -0.39736885 7
-4.3131528 -10.761857 0 7
-4.5745625 -11.414108 0.28549278 15
-4.3672194 -10.89676 0.82089418 9
-2.1878252 -5.4588985 -1.6863495 17
-4.8797474 -12.175582 1.2237585 7
-2.3788621 -5.9355597 -1.673992 15
-3.4947116 -8.7197447 1.0985533 8
-2.546984 -6.3550444 -1.6222152 25
-2.7218709 -6.7914095 -1.5551796 27
-5.7090535 -14.244805 2.5212984 7
-3.2273726 -8.0527 -1.6345228 14
-4.8249741 -12.038916 2.4436376 5
-3.3423474 -8.2684469 -1.4652452 24
-3.4380662 -8.5052404 -1.2892997 30
-3.5228014 -8.7148619 -1.0992503 15
-3.521024 -8.7104654 -0.87652844 7
-6.0826278 -15.047474 -1.1349378 6
-7.821909 -19.350185 -0.97331423 12
-4.8324594 -11.954753 -0.29937285 7
-6.1139708 -15.125011 0 4
-4.586678 -11.346727 0.28414658 15
-4.5799384 -11.330054 0.5699017 6
-4.3808379 -10.837511 0.81740636 9
-2.2148197 -5.4791193 -1.6946186 12
-4.8345041 -11.959811 1.203508 14
-2.37906 -5.8854241 -1.661836 18
-5.2864356 -13.077818 1.6495723 6
-2.5548882 -6.3203955 -1.6152984 21
-6.298667 -15.581923 2.362046 14
-2.6840897 -6.6400199 -1.5223296 5
-5.2461319 -12.978114 2.2998419 2
-3.2409391 -8.0175791 -1.6293385 17
-4.8245797 -11.93526 2.4254925 17
-3.3825533 -8.3011169 -1.4727029 31
-3.4371409 -8.4350805 -1.2801143 34
-3.5231371 -8.6461229 -1.0918167 10
-3.5528491 -8.719039 -0.8783862 9
-3.4240687 -8.4029989 -0.63450491 2
-7.8879776 -19.357868 -0.97480488 18
-4.8326268 -11.859739 -0.29733029 9
-6.4044843 -15.717232 0 4
-4.6055198 -11.302396 0.28335741 14
-4.5783896 -11.235816 0.5658024 4
-4.5571427 -11.183675 0.84447187 17
-2.2112496 -5.4266224 -1.6802853 12
-6.17766 -15.160582 1.5273294 8
-2.3640916 -5.8017125 -1.6400564 18
-3.6243334 -8.8944693 1.1231773 5
-2.573997 -6.3168406 -1.6162206 18
-5.1493587 -12.63703 1.9178054 13
-3.2440331 -7.9611745 -1.6197106 12
-6.3716249 -15.636591 3.1812835 7
-3.3862252 -8.244174 -1.4642726 27
-3.44789 -8.3943043 -1.2753824 30
-3.5065117 -8.5370264 -1.0792724 10
-6.2719393 -15.269794 -1.1543301 3
-7.6824059 -18.703745 -0.94294178 5
-4.8535714 -11.816606 -0.29658756 9
-4.7971282 -11.679188 0 8
-5.3412833 -13.003999 0.32639021 4
-6.2614532 -15.244265 0.76853347 4
-4.6399012 -11.2964 0.85395873 10
-2.228586 -5.4257617 -1.6819392 11
-4.7915187 -11.66553 1.1765693 4
-2.3670516 -5.7628732 -1.6309394 22
-2.610112 -6.3546324 -1.6277486 22
-5.1755972 -12.600616 1.9144653 13
-2.7895138 -6.7914085 -1.5605854 12
-5.8284168 -14.189984 2.5203257 23
-3.2371287 -7.8811808 -1.6052687 16
-4.8560662 -11.82268 2.4080882 12
-3.3910358 -8.1866856 -1.4558424 23
-3.4849083 -8.4133139 -1.2798359 63
-3.7127512 -8.9633751 -1.1345601 47
-3.5976737 -8.6855536 -0.87708575 9
-5.5529532 -13.406017 -1.0146776 5
-5.8517585 -14.127396 -0.71309918 10
-4.9031491 -11.837251 -0.29746959 4
-4.8355875 -11.674143 0 2
-4.6942606 -11.332949 0.28479648 3
-4.2080059 -10.159026 0.51279038 4
-4.6344595 -11.188577 0.8468436 25
-2.294704 -5.539906 -1.7194259 5
-2.3434174 -5.6575108 -1.6030817 42
-3.6755016 -8.8734465 1.1231773 10
-2.5939522 -6.2623558 -1.606076 25
-4.6240597 -11.163468 1.6981903 9
-2.8118985 -6.7885242 -1.5618328 28
-5.9248714 -14.303907 2.5436711 7
-3.2499692 -7.8461208 -1.6000844 16
-5.7485566 -13.878245 2.830235 4
-3.4131234 -8.1753635 -1.4555181 19
-3.4420054 -8.244544 -1.2556198 27
-6.3398151 -15.18559 -1.9243848 12
-3.6242156 -8.6809874 -0.87764311 4
-5.6595459 -13.556159 -1.0272338 21
-8.3272457 -19.94603 -1.0079722 19
-5.6795402 -13.604051 -0.34226641 9
-5.4360442 -13.020812 0 13
-5.1426296 -12.318005 0.30991054 13
-4.345654 -10.409029 0.52602011 2
-5.4789138 -13.123496 0.9944483 6
-2.2879446 -5.4802527 -1.7028878 5
-4.9177012 -11.779239 1.1908747 6
-2.396477 -5.7402172 -1.6284068 18
-3.701797 -8.8668156 1.123642 8
-2.5964341 -6.2191696 -1.5968536 18
-4.6643715 -11.172444 1.7015305 4
-2.8240609 -6.7643981 -1.5580903 48
-5.3626103 -12.844917 2.2868721 2
-3.254451 -7.7953 -1.5915675 14
-5.2693629 -12.621565 2.576947 12
-3.4472165 -8.1846056 -1.4590847 33
-3.5209348 -8.3596325 -1.2748258 7
-7.1909399 -17.073196 -2.1664429 10
-5.2561378 -12.479465 -1.2633305 6
-8.34058 -19.802746 -1.5025544 10
-6.5473385 -15.545116 -0.78660786 4
-5.6624913 -13.444255 -0.33869195 17
-5.3597002 -12.725348 0 9
-4.6993399 -11.157478 0.28108275 10
-4.3775582 -10.393483 0.52592695 4
-5.6207919 -13.345249 1.0125849 10
-4.9291754 -11.703169 1.1847439 6
-2.4430373 -5.8004179 -1.6476539 22
-3.7142138 -8.8185282 1.1189959 5
-2.6801691 -6.3634315 -1.6360487 19
-5.5620003 -13.205663 2.013835 16
-2.8688383 -6.8113828 -1.5709809 22
-5.9744096 -14.184832 2.5287559 11
-2.882982 -6.8449636 -1.3993796 1
-3.4469261 -8.1204491 -1.4493575 27
-3.4970605 -8.2385578 -1.2578466 18
-5.4238977 -12.777902 -1.6233222 9
-5.4372473 -12.809351 -1.2982578 9
-5.273715 -12.424093 -0.9438051 7
-5.7437582 -13.531446 -0.68552178 13
-5.7398567 -13.522255 -0.34105945 9
-5.4671106 -12.879704 0 3
-6.8187656 -16.064005 0.40516767 6
-4.3987598 -10.362828 0.52499527 2
-4.9689074 -11.706011 0.88925552 8
-4.9703975 -11.709522 1.1867875 6
-2.4713216 -5.8220687 -1.6557579 20
-3.7248547 -8.7752075 1.1148145 8
-2.6766376 -6.3057628 -1.6231374 15
-5.3860464 -12.688729 1.9372897 13
-2.9000788 -6.8321571 -1.5776341 24
-4.1517334 -9.7808704 1.7457138 10
-2.8867269 -6.8007016 -1.3919735 5
-5.9101491 -13.923438 2.8498614 6
-3.4461555 -8.052125 -1.4389818 24
-3.5027869 -8.1844473 -1.2511663 21
-3.6906915 -8.6234961 -1.0969273 7
-5.5016828 -12.854973 -0.65207487 21
-5.593502 -13.069514 -0.33005753 11
-5.5194654 -12.896523 0 6
-5.2851124 -12.348945 0.31186026 4
-5.0012627 -11.685716 0.88883698 8
-5.0051174 -11.694723 1.1867875 4
-2.4954364 -5.8307195 -1.6603165 18
-3.7438402 -8.7476816 1.1127238 5
-2.6271861 -6.1385593 -1.5820979 24
-5.3005462 -12.385008 1.893311 13
-2.9480469 -6.888268 -1.5926037 66
-4.1869469 -9.7830238 1.7483077 12
-2.9061186 -6.7903004 -1.3916032 7
-5.9645805 -13.936559 2.8561563 19
-3.4770682 -8.0581741 -1.4418999 24
-3.5709956 -8.2758522 -1.2667537 85
-3.701308 -8.5778532 -1.0925134 7
-6.3526015 -14.722279 -1.4959317 10
-8.6023903 -19.936209 -1.5183194 20
-5.3530021 -12.405686 -0.63008749 2
-5.5625448 -12.891307 -0.32597244 11
-5.5474043 -12.856217 0 9
-5.2139945 -12.083534 0.30554694 8
-5.8682771 -13.599847 0.69073915 8
-4.948173 -11.467487 0.87335104 5
-2.5257561 -5.8534894 -1.668927 9
-5.4043975 -12.524796 1.5952138 4
-2.6415324 -6.1218028 -1.5797923 24
-5.2988205 -12.280121 1.8796721 10
-2.9785473 -6.902842 -1.5980093 36
-5.2730718 -12.220447 2.1866817 4
-2.9254739 -6.7798433 -1.391233 7
-5.9334874 -13.750973 2.8217182 15
-3.483819 -8.0122356 -1.4354151 27
-3.6035695 -8.2876434 -1.2700938 33
-3.3592978 -7.7258563 -0.98519027 5
-7.4426303 -17.116879 -1.7413523 4
-6.3183017 -14.531099 -1.1080118 11
-6.663033 -15.323928 -0.77924764 3
-5.2955556 -12.178945 0.3083322 4
-4.2906618 -9.8678474 0.50179672 5
-5.4718308 -12.58435 0.95957005 13
-5.0962124 -11.720487 1.192361 1
-2.5158617 -5.7860861 -1.651706 9
-2.6950903 -6.1982832 -1.6014647 21
-4.5946894 -10.567062 1.6194184 10
-2.9806509 -6.8550282 -1.5888612 42
-5.9973311 -13.792917 2.471041 9
-2.9420447 -6.7662401 -1.3901221 7
-5.1489701 -11.841821 2.4328985 9
-3.480835 -7.9446301 -1.4250394 24
-3.664849 -8.3646221 -1.2834544 12
-3.3848448 -7.725543 -0.98635179 12
-6.8358989 -15.602201 -1.5891955 4
-6.008966 -13.714816 -1.0470448 2
-5.4486623 -12.435984 -0.63316202 2
-6.0613337 -13.83434 -0.35066873 6
-5.6520271 -12.900142 0 6
-5.3656521 -12.246522 0.3104212 13
-5.6579175 -12.913587 0.65747851 5
-5.5549903 -12.678666 0.96794081 13
-2.5568559 -5.8357482 -1.667914 6
-3.8312678 -8.7444553 1.1164405 7
-2.7295702 -6.2299495 -1.6116093 15
-4.6138473 -10.530609 1.6157998 14
-3.0272593 -6.9093928 -1.6034151 22
-2.9759138 -6.7922025 -1.3971578 1
-5.1670318 -11.793193 2.4258628 4
-3.5001936 -7.92102 -1.4227697 26
-3.3962524 -7.6857986 -0.9826349 12
-7.2278466 -16.356785 -0.83393657 27
-6.1064115 -13.818952 0 3
-5.4550138 -12.344824 0.31334576 13
-5.6718125 -12.835444 0.65440404 7
-5.7089624 -12.919516 1.3177651 8
-2.5994196 -5.8825474 -1.6836156 4
-3.8803992 -8.7814341 1.1227127 15
-2.7286777 -6.1750612 -1.5996203 18
-5.4674215 -12.372903 1.9011047 10
-3.0521142 -6.9070063 -1.6050783 22
-6.0846572 -13.769722 2.4733107 14
-5.2191501 -11.811058 2.4328985 4
-3.5179334 -7.9088373 -1.4221213 27
-3.5738666 -8.0345831 -1.2358572 6
-3.406949 -7.6593275 -0.98031199 10
-5.4661531 -12.288725 -1.2547843 45
-5.4740853 -12.306558 -0.94185191 38
-6.169219 -13.869322 -0.70788181 10
-5.121109 -11.513014 -0.29254889 4
-5.5386605 -12.451733 0 9
-5.5103521 -12.388091 0.31478482 13
-4.4446311 -9.9921913 0.5099954 2
-5.7741013 -12.981038 0.99347168 33
-5.6450133 -12.690829 1.2958426 8
-2.6090674 -5.8655715 -1.6805766 2
-3.9236422 -8.8209314 1.1289848 11
-2.7350576 -6.1488161 -1.594548 24
-3.8692741 -8.6987038 1.3380103 4
-3.0642116 -6.888803 -1.6025834 22
-5.7324829 -12.887474 2.3173509 4
-3.3389063 -7.5063577 -1.5478717 30
-3.5161064 -7.838325 -1.4114213 39
-3.6647491 -8.1696882 -1.2584033 6
-4.1123142 -9.167429 -1.1749805 10
-5.5079918 -12.278761 -1.2555275 12
-5.5151687 -12.29476 -0.94227046 42
-5.545969 -12.363422 0.31459916 27
-5.5706964 -12.418546 0.95175737 34
-4.7076297 -10.494543 1.0730878 12
-5.6213012 -12.531358 1.606132 8
-2.79339 -6.2272005 -1.6171428 25
-5.7050438 -12.718041 1.9590007 11
-3.0898411 -6.8880677 -1.6046625 19
-5.7689023 -12.860399 2.3157296 6
-3.3496001 -7.4671388 -1.5419466 26
-5.7322893 -12.778779 2.6387877 12
-3.6204269 -8.0034561 -1.4431969 9
-3.9540553 -8.7409878 -1.3483092 9
-5.9897685 -13.241214 -1.6995171 3
-6.8217435 -15.080409 -1.1573994 6
-5.564579 -12.301273 -0.62962168 28
-5.5871119 -12.351086 0 12
-5.5913754 -12.36051 0.31497052 18
-4.9338493 -10.906958 0.55825585 6
-4.981451 -11.012189 0.84516943 5
-4.7011809 -10.392612 1.0641701 12
-3.9904499 -8.8214426 1.1322371 10
-2.7952938 -6.1793842 -1.6069982 12
-3.9899712 -8.820385 1.3605562 7
-3.0961461 -6.8444605 -1.5967619 16
-5.818224 -12.861991 2.3192964 6
-3.3560319 -7.4189739 -1.5341704 26
-6.3313408 -13.996307 2.8942978 6
-3.600718 -7.908371 -1.4276334 96
-6.9085317 -15.173427 -2.3431184 56
-6.3645315 -13.978622 -1.7961545 7
-6.2919035 -13.819107 -1.4166021 6
-5.9987693 -13.175287 -1.012306 13
-6.7246356 -14.76953 -0.75679439 14
-6.0996213 -13.396791 -0.34175578 12
-4.8713984 -10.699206 0 10
-5.1907263 -11.400557 0.2908313 3
-5.1343336 -11.2767 0.57782084 1
-5.0381064 -11.065352 0.85019189 2
-4.6316662 -10.172675 1.042805 3
-5.6944938 -12.506997 1.6070611 8
-2.8224807 -6.1991038 -1.6139151 12
-5.6906343 -12.49852 1.9300528 10
-3.1088076 -6.8279729 -1.5946828 15
-5.8684425 -12.889046 2.3267539 15
-3.3961389 -7.4590473 -1.5441685 22
-4.3628578 -9.5822821 1.9837197 13
-3.647778 -7.945446 -1.4363879 39
-6.9338555 -15.10305 -2.3356032 12
-3.9998727 -8.7123642 -1.1210866 15
-6.0353479 -13.145956 -1.3495342 9
-9.2699709 -20.191483 -1.5536162 5
-5.6745043 -12.359982 -0.31575969 2
-3.8669126 -8.4227562 0 7
-7.6007652 -16.555687 0.42294711 14
-7.1144309 -15.496372 0.79517919 10
-5.0437098 -10.98601 0.84530896 10
-4.6536317 -10.136357 1.0405755 8
-4.0346828 -8.788187 1.1308432 5
-2.8849773 -6.2839437 -1.6383543 13
-4.0565248 -8.835762 1.3664017 14
-3.1245296 -6.805727 -1.591772 15
-4.7692847 -10.388268 1.8780042 10
-3.3703535 -7.3411708 -1.5219502 24
-4.4577231 -9.7096367 2.0129738 22
-3.6787961 -7.9507079 -1.439306 24
-5.8766603 -12.700788 -1.9667945 6
-4.039887 -8.7311068 -1.1250358 10
-5.6526966 -12.216753 -0.94129384 2
-6.1695871 -13.33387 -0.68514913 6
-7.331636 -15.845318 -0.40535334 4
-3.8918869 -8.4112453 0 8
-5.724587 -12.372124 0.31650242 13
-6.2492867 -13.506118 0.69399995 2
-5.3083577 -11.472558 0.88395405 16
-4.7388783 -10.241784 1.0528373 5
-6.0277143 -13.02725 1.67861 8
-2.9175026 -6.3053813 -1.6461933 9
-6.3357482 -13.692981 2.1204417 12
-3.1356728 -6.7768965 -1.587198 13
-4.8241205 -10.426013 1.8874072 6
-3.3739636 -7.2918963 -1.5138037 50
-4.42874 -9.5715055 1.9870524 9
-3.5037405 -7.5206513 -1.3631094 13
-7.1372495 -15.319847 -1.9764204 13
-5.9270272 -12.722148 -1.3094049 12
-5.4502158 -11.69869 -0.60185796 2
-5.7324686 -12.304536 -0.31515619 2
-5.936718 -12.742949 0 3
-7.5200119 -16.141432 0.41343069 7
-5.7421312 -12.325275 0.63409364 1
-7.2121954 -15.480715 1.1942308 14
-4.1458917 -8.8990059 0.9159146 2
-6.0576019 -13.002422 1.6774484 6
-2.906878 -6.2395082 -1.6309764 9
-5.9776354 -12.830777 1.9893404 8
-3.1492722 -6.759798 -1.5851189 13
-3.343241 -7.1761451 -1.4915855 38
-4.5840912 -9.8395853 2.0451901 13
-5.4904547 -11.694291 -1.8156524 26
-7.7592802 -16.526733 -2.1350822 5
-6.3921323 -13.614802 -1.4032257 13
-5.7157507 -12.174156 -0.94045675 4
-6.2133932 -13.2341 -0.68179512 12
-5.7630038 -12.274802 -0.31483126 2
-5.9898014 -12.757865 0 6
-6.3773732 -13.583367 0.34839407 16
-5.7973557 -12.347969 0.63614339 7
-6.3101349 -13.440153 1.0382553 15
-4.7765384 -10.173698 1.0485642 6
-4.3452311 -9.255043 1.1956553 5
-2.9129722 -6.2044306 -1.6240596 3
-6.0872245 -12.96537 2.013 11
-3.1593385 -6.7291737 -1.580129 13
-5.5616484 -11.845929 2.1500425 12
-3.3444719 -7.1234951 -1.4826981 34
-4.2140007 -8.9755325 1.8681847 4
-3.8369668 -8.1098385 -1.4739997 13
-5.6979213 -12.043164 -1.872435 4
-6.4929681 -13.723581 -1.4164164 16
-5.7527008 -12.158946 -0.94059628 2
-6.2005138 -13.105448 -0.67611194 9
-6.8375106 -14.451808 -0.37118706 13
-5.4083581 -11.431142 0 8
-6.4321856 -13.59511 0.34918323 10
-6.9130988 -14.611571 0.75381309 4
-4.1373081 -8.7446423 0.90253812 5
-4.3684249 -9.2331314 1.1944939 5
-4.1233058 -8.7150469 1.3549894 7
-3.1675777 -6.695013 -1.5743074 12
-5.5360026 -11.700932 2.1266971 10
-3.3344927 -7.0478063 -1.4689969 24
-4.2481794 -8.9789801 1.8715175 6
-3.5832849 -7.5158877 -1.3679731 22
-5.5456171 -11.631851 -1.5069393 6
-5.560123 -11.662277 -1.2053659 41
-5.5904136 -11.725811 -0.90836877 2
-6.1095457 -12.814683 -0.66204375 3
-6.0534439 -12.69701 -0.32657591 8
-5.4809837 -11.496284 0 2
-6.5361705 -13.709522 0.35261843 5
-4.1572375 -8.7197456 0.90123767 3
-4.3958011 -9.220129 1.1944939 6
-4.1431799 -8.6902599 1.3530409 5
-3.1722744 -6.6537991 -1.5668226 12
-5.6997929 -11.955232 2.1759818 9
-3.3680768 -7.0644922 -1.4745513 39
-4.2671895 -8.950367 1.8681847 5
-3.2249522 -6.71595 -1.22401 5
-6.2738647 -13.065298 -2.0369377 7
-6.2960801 -13.111562 -1.7009109 17
-5.6022077 -11.666574 -0.60353494 11
-7.5187006 -15.657663 -0.40326437 8
-6.1268773 -12.759196 0 3
-4.3364015 -9.0305386 1.171496 5
-4.1674304 -8.6786566 1.3530409 7
-3.1628966 -6.5867195 -1.5531005 12
-5.0454483 -10.507126 1.9149677 6
-3.3801339 -7.039115 -1.4712187 39
-4.2887626 -8.9313307 1.8667036 5
-3.236577 -6.6862459 -1.2204434 13
-6.4805617 -13.387795 -2.0903802 5
-6.4800496 -13.386737 -1.7392406 18
-6.3649855 -13.149033 -1.3629106 6
-5.6233859 -11.617008 -0.90250927 6
-4.3819852 -9.052474 -0.23350061 5
-4.3734059 -9.0347509 1.1738191 4
-4.2110705 -8.6993923 1.3583295 7
-3.1511846 -6.5098386 -1.5372993 18
-3.2378144 -6.6888022 -1.4001203 28
-4.3347836 -8.9549637 1.8744799 1
-4.5331502 -9.3025751 -1.4543591 1
-5.0751967 -10.414921 -1.0808907 7
-5.0883155 -10.441842 -0.81224442 7
-7.359252 -15.102079 -0.78344017 4
-5.6739426 -11.64362 -0.30071908 10
-3.1759295 -6.5173931 -1.5410416 19
-5.7905865 -11.882987 2.1717668 24
-3.2071009 -6.5813608 -1.3793832 21
-4.363379 -8.9541845 1.8767018 4
-3.2741637 -6.6657219 -1.2201191 12
-3.3224406 -6.7640066 -1.0591073 5
-5.1286907 -10.441269 -0.27008083 6
-5.7411423 -11.688132 1.8301264 2
-3.2032888 -6.521431 -1.5443681 16
-5.1231136 -10.429915 1.9091314 6
-3.2355597 -6.5871301 -1.3827159 29
-4.3992867 -8.9563093 1.8800344 6
-3.5540206 -7.1878581 -1.3173914 11
-3.3462813 -6.7677135 -1.0610558 5
-5.0978365 -10.310161 -1.3450252 18
-3.3989785 -6.8742914 -0.71545374 15
-3.3833158 -6.8426147 -0.53377652 4
-5.1447134 -10.404967 -0.54129946 33
-5.1604381 -10.436769 -0.27031294 6
-4.2890687 -8.6744614 1.3599997 5
-3.2177486 -6.507762 -1.5431207 16
-3.2458236 -6.5645423 -1.3797535 24
-3.6105311 -7.2479405 -1.330361 24
-3.3884242 -6.8020735 -1.0680145 5
-3.4233654 -6.8722157 -0.89784497 12
-6.7827821 -13.616058 -1.4192032 37
-3.4640965 -6.9539814 -0.54326344 6
-6.5518537 -13.152482 -0.6852423 9
-3.2291932 -6.4824262 -1.5393783 15
-5.2200027 -10.478866 1.9233979 17
-3.2591529 -6.5425682 -1.3771614 24
-4.8164301 -9.6687164 2.035192 11
-4.8987546 -9.761301 -1.2771931 10
-3.4870517 -6.9483294 -0.72530031 2
-6.1765532 -12.307453 -0.9629184 2
-5.1069007 -10.176054 -0.53095794 2
-3.233496 -6.4430919 -1.5323093 13
-5.7220044 -11.401715 2.0958941 12
-3.2961824 -6.5680013 -1.3845674 42
-3.6102002 -7.1376963 -1.3141489 8
-3.5148323 -6.9491453 -1.0944574 5
-4.9598784 -9.8061333 -1.2850914 10
-6.1018605 -12.063937 -1.2612869 3
-7.0562439 -13.95084 -1.0932235 5
-3.2528374 -6.4311576 -1.5318935 15
-6.5282903 -12.907027 2.3763628 4
-3.3664753 -6.6558299 -1.4053044 45
-5.6063566 -11.084281 2.3403225 6
-3.6910243 -7.2471714 -1.3361974 23
-3.5081584 -6.8881221 -1.0863853 6
-6.7470231 -13.247497 -1.7385437 14
-4.1768813 -8.2011318 -0.64357322 2
-3.262794 -6.4063592 -1.528151 15
-6.5508738 -12.862366 2.3714991 2
-3.4804907 -6.8337979 -1.4449271 28
-5.5356035 -10.868926 2.2981079 1
-3.7121487 -7.2385917 -1.3365216 81
-4.8875418 -9.5305767 -1.5052965 6
-6.9698172 -13.590959 -1.7861655 15
-6.6353064 -12.938672 -1.356594 3
-3.2672811 -6.3711114 -1.5219136 15
-6.6299949 -12.928314 2.3870628 2
-3.4663773 -6.7593441 -1.4312258 16
-4.5453038 -8.8632221 1.8767018 2
-3.8115065 -7.3783379 -1.3644063 27
-3.8422856 -7.4379201 -1.1765695 9
-7.1541624 -13.849072 -1.8228692 11
-6.9158645 -13.387773 -1.4058267 10
-3.2727027 -6.3353181 -1.5156764 17
-3.4755931 -6.7280741 -1.4267821 26
-4.5941334 -8.8933516 1.8859594 4
-3.6369014 -6.9953656 -1.295343 13
-4.9900265 -9.5980225 -1.5203271 8
-6.7982054 -13.075948 -1.7234441 3
-7.2604485 -13.965045 -1.4684358 7
-3.2901785 -6.3284645 -1.5160922 15
-3.5303655 -6.7904501 -1.4419646 56
-4.6409712 -8.9266348 1.8955873 6
-3.6451228 -6.9576831 -1.2904794 12
-3.8841407 -7.4139128 -1.1762912 7
-6.7433786 -12.871527 -1.6992849 7
-3.3018732 -6.3025007 -1.5123497 16
-3.4832745 -6.6487527 -1.4141918 28
-4.6343327 -8.8458529 1.8815157 4
-3.6682212 -6.9544587 -1.2917764 3
-3.8900456 -7.3750081 -1.1718376 16
-6.6551104 -12.617203 -1.6681564 3
-3.2701752 -6.1998167 -1.4898953 15
-3.4734025 -6.5851083 -1.4027123 22
-4.7287054 -8.9649954 1.9096588 2
-3.9050505 -7.3536215 -1.1701674 15
-5.3617558 -10.096751 -1.3368946 10
-3.3150003 -6.2424951 -1.50237 27
-3.5185091 -6.6257234 -1.4134512 26
-5.08111 -9.5001078 -1.7700319 4
-3.9119077 -7.3140607 -1.165714 6
-3.3270495 -6.2205558 -1.4994593 75
-3.4436045 -6.438478 -1.3756802 80
-6.8023839 -12.628119 -2.3565838 9
-5.1499248 -9.5604515 -1.5261724 4
-3.4160013 -6.3415523 -1.5310618 25
-3.5512412 -6.5926151 -1.4108591 18
-3.8675654 -7.132072 -1.332955 6
-5.1605525 -9.5164347 -1.5214404 6
-3.3348458 -6.1496987 -1.4869846 17
-3.5846283 -6.6103153 -1.4167839 15
-3.8662953 -7.0765896 -1.3248489 5
-6.5207887 -11.935184 -1.9114034 6
-3.3410168 -6.1151571 -1.481163 55
-3.5526056 -6.5024343 -1.3960469 18
-6.537868 -11.887426 -1.9066716 12
-3.4099319 -6.2000818 -1.5040333 15
-3.487401 -6.3409395 -1.3634601 21
-4.96106 -8.9610519 -1.682811 4
-6.2295375 -11.252275 -1.8075805 5
-3.427233 -6.1905346 -1.5040333 6
-3.3918128 -6.1265559 -1.3193939 21
-4.0455332 -7.2594409 -1.365379 6
-3.3987963 -6.0989146 -1.4840738 8
-3.414649 -6.1273613 -1.3216158 26
-3.4443552 -6.1377711 -1.3260593 29
-6.3245764 -11.187764 -2.1114576 6
-3.4752276 -6.1474514 -1.330503 22
-6.6642151 -11.712095 -2.213918 8
-3.5089052 -6.1667628 -1.3367982 19
-3.5819886 -6.2519741 -1.1838042 8
-3.5154626 -6.13586 -1.3323547 15
-5.3440771 -9.2636833 -1.7570622 6
-3.7840908 -6.5595264 -1.4267821 11
-4.2122283 -7.2577152 -1.3786731 1
-3.809144 -6.5631962 -1.4297446 28
-5.0676675 -8.6688004 -1.6497386 6
-3.614501 -6.1829996 -1.3493886 8
-3.5696447 -6.0697393 -1.1568921 5
-3.6027782 -6.1260791 -1.33902 19
-3.9055233 -6.5933676 -1.259028 2
-3.6410382 -6.1468596 -1.3460559 19
-3.6470888 -6.1156225 -1.1698618 1
-3.7639532 -6.3115864 -1.3845674 19
-3.6591232 -6.0946217 -1.1679163 1
-4.22679 -7.0401254 -1.5471309 22
-3.6230321 -5.9988642 -1.1513799 3
-4.0115075 -6.6420856 -1.461961 7
-3.6869526 -6.0639729 -1.1659708 1
-3.9325318 -6.4273767 -1.2379524 1
-5.1991839 -8.4379473 -1.6283386 1
-5.8250647 -5.5762873 -1.3248489 1
-5.7655983 -5.5193605 -1.5038055 2
-5.755805 -5.4773498 -1.3053944 4
-5.6950984 -5.41958 -1.4812168 2
-5.9498096 -5.6284227 -1.3456004 5
-5.7852941 -5.4727936 -1.1192303 1
-5.6997318 -5.3918533 -1.4782544 3
-6.4143782 -6.0361567 -1.4470879 5
-5.8414283 -5.4969912 -1.1273022 1
-5.7038083 -5.3674855 -1.4756622 1
-8.4290409 -7.9320259 2.1807215 1
-5.1625271 -4.8293161 -1.1614316 1
-5.9560652 -5.5716367 -1.1462297 4
-5.3938947 -5.0457506 1.3916032 1
-5.7409878 -5.3404593 -1.2882098 7
-5.7932358 -5.3890624 -1.1119932 5
-5.8411169 -5.4336033 -0.93292248 2
-5.1115189 -4.7549067 -1.3153206 1
-5.4065247 -5.0293307 1.391233 1
-5.1569281 -4.7686868 -1.1539739 13
-5.7801161 -5.3449578 -1.1064262 5
-6.0852108 -5.6270828 -1.5615728 2
-5.4459534 -5.0359526 1.3975281 1
-5.1166639 -4.7017179 -1.1416527 2
-7.4878349 -6.8805938 -1.915954 2
-5.4877987 -5.0427547 1.4041936 1
-7.5381789 -6.8857174 -1.4348748 16
-5.7405872 -5.2437153 -0.90922773 10
-5.1457543 -4.7003675 -1.3130988 1
-6.3371429 -5.7886367 1.6171185 1
-6.3931327 -5.8091526 -1.4192032 5
-6.5183954 -5.9229732 -1.2378056 3
-5.8219237 -5.2901206 -0.91991359 2
-6.1399026 -5.5790539 -1.5630541 2
-6.4088778 -5.7888336 -1.4188789 5
-8.5039253 -7.6811905 -1.6105113 4
-10.453129 -9.4418125 -1.6472493 3
-5.8874297 -5.3178344 -0.74016303 2
-6.1520543 -5.5568576 -1.5619433 2
-6.1433034 -5.5489531 1.5597215 1
-6.3853745 -5.7353077 -1.4101243 4
-6.0057535 -5.3943343 -1.1345392 4
-6.6769381 -5.9971886 -1.0495378 10
-7.0024614 -6.2895722 -1.7733868 2
-6.0096297 -5.3978157 1.5219502 4
-6.3891139 -5.7045069 -1.4072062 5
-6.0498033 -5.4015541 -1.1398278 6
-6.4561357 -5.7643471 -1.0121373 15
-6.4155798 -5.7281365 -0.80240059 2
-5.6180472 -5.0160613 -1.4190058 1
-6.0358825 -5.3891249 1.5245425 4
-8.1580715 -7.2405291 -1.7920804 5
-6.4790773 -5.7503724 -1.2174864 15
-7.4938893 -6.6510477 -1.1717283 2
-6.5993557 -5.8571229 -0.82320839 2
-5.6079164 -4.9771914 -1.4127107 1
-6.112114 -5.4246817 1.5397248 5
-6.3197646 -5.577508 -1.3848336 4
-6.5886607 -5.8148222 -1.2350222 15
-10.327359 -9.1144104 -1.610778 3
-5.9512796 -5.2523017 -0.7405346 2
-5.8631592 -5.1745305 0 3
-8.51653 -7.516263 0.26372108 3
-5.6262131 -4.965414 -1.4138215 1
-6.0565047 -5.3451676 1.5219502 5
-5.7799506 -5.0706668 -1.2632432 3
-6.4614692 -5.6685534 -1.2080226 7
-6.5211248 -5.7208881 -1.0144602 7
-6.9428482 -6.0908594 -0.86166561 6
-6.7175465 -5.8932056 -0.62487847 1
-7.3393655 -6.4387188 -0.22667664 1
-5.9010386 -5.1768956 0 2
-5.9159822 -5.1900053 0.18271539 7
-5.8871236 -5.1646876 0.36521408 3
-5.6616058 -4.9668446 -1.4190058 1
-6.1535978 -5.3984618 1.5423169 5
-5.7212157 -4.9909353 -1.2473553 5
-6.5310035 -5.6973581 -1.2180431 4
-10.327291 -9.0090714 -1.6026474 3
-6.7782569 -5.9130511 -0.83918583 6
-7.1519384 -6.2390342 -0.66366315 1
-7.4852996 -6.5298438 -0.46322563 1
-6.0615377 -5.287817 -0.18675408 1
-6.1520915 -5.3668122 0 1
-8.6410437 -7.5380635 0.26622784 3
-8.0799675 -7.0486059 0.50002652 4
-5.6989083 -4.9714751 1.2424917 1
-5.6561999 -4.9342184 -1.4141918 1
-5.6102867 -4.8941655 1.4027123 5
-5.7309027 -4.9677658 -1.2460583 8
-6.5264215 -5.6573524 -1.2138678 21
-6.131671 -5.3151674 -0.94895124 2
-6.6673942 -5.7795529 -0.82320839 6
-6.9709964 -6.042727 -0.64510787 1
-6.8022995 -5.8964939 -0.41980988 1
-7.3442063 -6.3662395 -0.22565536 3
-6.1296296 -5.3133979 0 5
-8.7613773 -7.5946975 0.26919881 3
-8.096034 -7.0179529 0.49965391 5
-5.7085338 -4.9483757 1.2411947 1
-7.6973772 -6.6723819 -1.9192867 2
-5.6018734 -4.8559184 1.3967874 5
-5.7462468 -4.9530325 -1.2463826 6
-5.8266177 -5.0223093 -1.0810968 5
-6.3767004 -5.4964581 -0.98449343 5
-6.8102088 -5.8701253 -0.83881426 4
-6.9576182 -5.9971862 -0.64231759 1
-7.2136979 -6.217916 -0.44412643 5
-6.8712587 -5.9227476 -0.21061477 1
-7.3472748 -6.3330541 0 3
-8.6659336 -7.4696846 0.26562434 3
-7.4210138 -6.3966146 0.45689029 5
-6.6207409 -5.706811 1.4360636 2
-7.4956508 -6.460948 -1.8644818 2
-6.3255248 -5.4523468 1.5734226 5
-5.7624178 -4.9372435 -1.2467068 3
-5.8189349 -4.9856677 -1.0769216 5
-6.8244109 -5.8471599 -1.0509316 2
-6.98033 -5.9807515 -0.8575784 2
-7.2321172 -6.1964827 -0.44412643 5
-7.2911687 -6.2470784 -0.22291648 1
-6.0036979 -5.1439724 0 2
-7.3230548 -6.2743983 0.22389135 2
-7.0530968 -6.043098 0.43313274 3
-7.1738582 -6.1465664 0.66059381 2
-7.9100237 -6.7773137 1.7113444 2
-7.6535931 -6.5576038 -1.8989201 2
-6.2401857 -5.3465953 1.548242 4
-6.7576528 -5.7593536 -1.4587605 1
-5.8214154 -4.9614248 -1.0749731 8
-7.7437911 -6.5998106 -1.1898478 7
-6.8701677 -5.8552465 -0.84215832 6
-6.0115967 -5.1235113 -0.55233175 1
-6.8514581 -5.8393011 -0.41980988 4
-7.3470631 -6.2616906 -0.22412345 1
-7.3703532 -6.2815404 0 5
-8.7866497 -7.4886088 0.26803827 3
-7.1570826 -6.0997758 0.43853644 2
-7.1762581 -6.1161189 0.65933818 2
-7.9998355 -6.8180299 1.7269078 2
-7.7215924 -6.5808911 -1.9115103 2
-6.4411421 -5.4896002 1.59453 2
-6.8063345 -5.7660666 -1.4655695 1
-5.8466887 -4.9530916 -1.0769216 5
-6.5912261 -5.5838351 -0.8059305 4
-7.033011 -5.9580984 -0.64454985 4
-9.4677839 -8.0207443 -0.57865942 2
-7.2878051 -6.1739497 -0.22175597 1
-6.1650958 -5.2228336 0 1
-8.7172947 -7.3849587 0.26525298 3
-7.4022799 -6.2709284 0.4524183 5
-7.1662273 -6.0709543 1.5430632 2
-7.7440834 -6.5604916 -1.9122509 2
-6.2039647 -5.2557616 1.5319484 11
-6.5370283 -5.5046902 -1.2010639 1
-5.9016919 -4.9696875 -0.90225869 2
-6.8530025 -5.7707658 -0.83584166 4
-7.2429471 -6.0991297 -0.66212845 1
-7.2878995 -6.1369829 -0.44431275 1
-7.0567927 -5.9423728 -0.21418923 1
-6.2004519 -5.2212667 0 1
-7.1118522 -5.9887371 0.2158604 2
-7.425436 -6.2527995 0.45269778 5
-7.2053413 -6.0674624 1.5476025 2
-6.1789389 -5.2031512 1.5219502 5
-6.5432634 -5.4787846 -1.1993939 1
-5.8850856 -4.9276814 -0.89761263 7
-6.8110728 -5.7030258 -0.82878196 2
-6.1310334 -5.1336174 -0.55916792 1
-7.9391613 -6.6475935 -0.48288384 2
-7.8536673 -6.5760078 -0.23781782 1
-6.2410774 -5.225759 0 1
-7.4336782 -6.2243438 0.45213878 5
-7.2140594 -6.0404534 0.65794307 2
-8.1528854 -6.8265481 1.4944409 1
-6.375783 -5.3385506 1.5667572 1
-6.8103571 -5.6661286 -1.4555181 1
-5.9590559 -4.9578571 -1.0894471 1
-5.8944283 -4.9040875 -0.89668345 7
-9.0272017 -7.5105143 -1.0955676 2
-6.9983416 -5.8225293 -0.63659757 4
-5.9404402 -4.942369 -0.36036944 1
-7.8389344 -6.5218911 -0.23675013 1
-7.7503366 -6.4481792 0 6
-7.2381835 -6.0220747 0.43909544 6
-7.2652078 -6.044558 0.66087282 2
-6.0108209 -5.0009251 1.0989109 1
-8.0634985 -6.7087259 1.7233411 4
-8.7510014 -7.2807193 -2.1448021 2
-6.3774133 -5.3059249 1.5630541 5
-8.025938 -6.639636 -1.7113444 1
-6.603128 -5.4625845 -1.2044041 1
-6.004528 -4.9673796 -0.91131842 2
-5.9686728 -4.9377174 -0.72269928 6
-7.063767 -5.843658 -0.64106202 2
-8.3094301 -6.8741608 -0.50291473 2
-7.0806484 -5.8576241 -0.21335365 1
-7.154985 -5.9191203 0 1
-8.4286833 -6.972816 0.25397253 3
-7.1857018 -5.9445319 0.43490291 5
-7.2344041 -5.9848218 0.65654796 2
-5.9942427 -4.9588704 1.093344 1
-5.8863978 -4.8696537 1.2551372 5
-8.7925005 -7.2737913 -2.1499863 2
-6.3710041 -5.270555 1.5578699 4
-6.5502005 -5.3861427 -1.3932639 1
-6.6330752 -5.4542899 -1.2069093 3
-5.9271798 -4.8738413 -0.89738035 2
-5.9725308 -4.9111328 -0.72139883 6
-7.1273055 -5.8606887 -0.64524734 1
-5.8978243 -4.8497024 -0.35608375 1
-7.0254121 -5.7769032 -0.21117184 1
-8.4462471 -6.9452367 0.2538797 3
-7.163187 -5.8901935 0.43248057 3
-7.2783279 -5.9848723 0.65891963 2
-8.1138906 -6.6719446 1.4763484 1
-5.9145398 -4.8634472 1.2580553 7
-7.3308673 -6.0280747 -1.7881989 2
-6.3866143 -5.2516284 1.5578699 2
-8.0949774 -6.6209455 -1.7181534 1
-6.610539 -5.4068117 -1.2002289 4
-9.0474977 -7.4000201 -1.3668615 2
-5.9915333 -4.9005222 -0.72214192 6
-6.0291481 -4.9312878 -0.54465854 4
-7.2079659 -5.895452 -0.43425074 4
-7.1921868 -5.8825464 -0.21572115 1
-6.2745399 -5.1319957 0 1
-7.9273467 -6.4838395 0.23777141 3
-6.9899173 -5.7171082 0.42111421 3
-7.2630844 -5.9405341 0.65612936 2
-6.0371757 -4.9378533 1.0961274 1
-5.9165587 -4.8392 1.2557856 3
-7.1321135 -5.8334117 -1.7359861 2
-6.4322901 -5.2610207 1.5656462 1
-6.6382513 -5.3947606 -1.2021774 4
-9.0830345 -7.3815818 -1.3687199 2
-9.0713921 -7.3721204 -1.0905514 2
-6.0291276 -4.8997388 -0.54326344 7
-7.156683 -5.8160782 -0.43005824 1
-7.1671858 -5.8246136 -0.21442135 3
-6.6150198 -5.3758807 0 1
-7.9197474 -6.436204 0.23693581 3
-6.987689 -5.6787405 0.41990307 4
-7.4876375 -6.0850377 0.67468464 4
-6.0465107 -4.913866 1.0950141 1
-5.9884005 -4.866641 1.2677824 2
-7.1473546 -5.8084974 -1.7352456 2
-7.1076975 -5.776269 1.7256176 6
-8.2569265 -6.6720223 -1.7440926 1
-6.2943606 -5.0861673 -1.1373227 3
-8.9058437 -7.1963801 -1.3389853 2
-9.7347307 -7.8661637 -1.1676518 2
