# .PCD v0.7 - Point Cloud Data file format
VERSION 0.7
FIELDS x y z intensity
SIZE 4 4 4 4
TYPE F F F F
COUNT 1 1 1 1
WIDTH 1392
HEIGHT 1
VIEWPOINT 0 0 0 1 0 0 0
POINTS 1392
DATA ascii
-2.9961591 15.811328 -1.1253114 12
-3.6808987 19.424835 -0.92197931 22
-4.0773869 21.517183 -0.50845569 6
-4.139926 21.847214 0 9
-2.4174705 12.757473 0.30146185 16
-2.4032221 12.682282 0.60195112 6
-0.93841195 4.9521866 -1.5727787 9
-2.7680855 14.607739 1.0396504 11
-1.017975 5.372057 -1.5678253 11
-3.1399026 16.569891 1.5734038 17
-1.1069672 5.8416867 -1.5564834 8
-4.201407 22.171661 2.6389441 5
-1.2083718 6.3768191 -1.5378305 8
-2.1504838 11.348532 1.6233152 8
-1.3257806 6.9964085 -1.5135972 19
-2.2222557 11.727286 1.96101 17
-1.4303979 7.5484948 -1.4475192 28
-2.2438476 11.841231 2.2707055 11
-1.6008002 8.5869589 -1.4350909 67
-1.9168066 10.28207 -1.4699464 53
-2.2436342 12.035228 -1.4316735 11
-2.3776171 12.753934 -1.210382 8
-2.9510565 15.829958 -1.126009 12
-2.9803143 15.986901 -0.75837827 3
-3.3297598 17.861385 -0.42183304 4
-4.0728798 21.847607 0 9
-2.4111168 12.933632 0.30545408 17
-2.3813224 12.773809 0.60595727 9
-0.92161351 4.9436884 -1.5692042 9
-1.0020297 5.3750539 -1.5678253 11
-2.844017 15.25578 1.4478137 2
-1.0892733 5.8430438 -1.5559769 8
-4.1031971 22.010233 2.6182692 16
-1.1880175 6.3727236 -1.5359859 8
-2.1193399 11.368492 1.6252636 6
-1.3161281 7.0599308 -1.5264878 21
-2.1914256 11.755172 1.9645766 12
-1.4058313 7.5411134 -1.4452974 31
-2.2112219 11.861362 2.2732975 4
-1.5891979 8.6673765 -1.4477363 34
-1.639478 8.9416008 -1.2776091 4
-2.153821 11.746793 -1.3965961 100
-2.8756528 15.683614 -1.1149875 12
-2.9613342 16.150915 -0.76573849 11
-3.1804729 17.346083 -0.40943846 4
-3.4089286 18.592064 0 18
-2.3388376 12.75586 0.30109048 16
-2.6914668 14.679076 0.69595647 10
-0.90522063 4.9370112 -1.5662255 10
-2.2726004 12.394608 0.88116378 8
-0.98573154 5.3761125 -1.5672741 11
-2.8034112 15.289614 1.450229 7
-1.0715841 5.844346 -1.5554703 8
-3.0190036 16.465441 1.9576039 20
-1.1722641 6.3934484 -1.540136 8
-2.0870306 11.382522 1.626377 8
-1.3001158 7.0907426 -1.5323093 16
-2.1323369 11.62962 1.9425281 17
-1.3894776 7.5781155 -1.4515924 24
-2.1749578 11.862071 2.2721865 8
-1.5829921 8.7627859 -1.4629756 55
-2.0361907 11.271505 -1.3394499 7
-2.343524 12.972775 -1.2298894 5
-2.8462901 15.755878 -1.1195915 12
-2.9066129 16.0898 -0.76247758 3
-3.209697 17.76755 -0.41918701 8
-3.9401381 21.810966 0 27
-2.3040152 12.75407 0.30090478 16
-2.6285243 14.550418 0.68952799 8
-0.89161438 4.9356065 -1.565034 10
-2.2504313 12.457452 0.88520962 16
-0.97165442 5.378675 -1.5672741 11
-3.3273087 18.418598 1.7461827 13
-1.055593 5.8433242 -1.5544574 8
-2.9755366 16.471333 1.9573717 11
-1.1562151 6.4003258 -1.5410583 8
-2.0600426 11.403539 1.6286038 8
-1.2794622 7.082571 -1.5298144 16
-2.1113579 11.687599 1.9512826 19
-1.3657911 7.560452 -1.4475192 22
-2.1501865 11.902538 2.2788522 12
-1.5323553 8.6375217 -1.4412515 27
-1.8117852 10.212602 -1.4576992 29
-2.0011141 11.279803 -1.3396822 13
-2.3051887 12.993799 -1.2311898 8
-2.8086219 15.831533 -1.1243348 24
-4.1905432 23.621094 -1.1187477 8
-3.8653028 21.78779 0 9
-2.315623 13.052615 0.30777517 17
-2.7248304 15.35922 0.72744685 12
-0.87610292 4.9383836 -1.565034 10
-2.2064011 12.436958 0.88325649 11
-0.95508623 5.3835936 -1.5678253 11
-3.2948163 18.572094 1.7597449 3
-1.0382427 5.8523269 -1.5559769 8
-3.2832568 18.506935 2.198036 14
-1.1354204 6.400094 -1.540136 8
-2.0245497 11.411904 1.6288821 12
-1.2592537 7.0981135 -1.5323093 13
-2.0649738 11.639766 1.9422039 19
-1.3488967 7.6034098 -1.4549253 26
-3.1348376 17.670332 3.3812478 11
-1.5255351 8.7409191 -1.4577879 16
-1.7492096 10.022516 -1.4298645 82
-2.0730927 11.878283 -1.4100696 52
-2.7565143 15.79411 -1.1211261 12
-2.9697716 17.01602 -0.80552071 4
-3.1042042 17.786283 -0.41918701 17
-3.8408973 22.007343 0 9
-2.2884483 13.112213 0.30902857 17
-2.6613221 15.248683 0.72185683 8
-0.86099672 4.9332876 -1.562651 10
-2.166862 12.415555 0.88130331 8
-0.93872744 5.378664 -1.5656203 11
-1.0218968 5.8552032 -1.5559769 8
-3.209708 18.390793 2.1831686 14
-1.1198868 6.4166598 -1.5433638 11
-3.2035358 18.355427 2.6186812 4
-1.2434646 7.1247287 -1.5372993 13
-2.0334814 11.65132 1.9431767 17
-1.3367836 7.6594229 -1.4649234 48
-3.0871727 17.688698 3.3830993 15
-1.4857631 8.6556711 -1.4428728 31
-1.734619 10.105441 -1.4409983 37
-2.0409248 11.889899 -1.4107665 82
-2.414845 14.068263 -1.3316989 3
-2.7127385 15.803712 -1.1212656 12
-3.5356936 20.598038 -0.97461855 12
-3.0477612 17.755468 -0.41825855 17
-3.7790918 22.016012 0 18
-2.2467513 13.088991 0.3083322 17
-2.5264611 14.71851 0.69642228 4
-0.84850991 4.9431992 -1.565034 9
-3.2288237 18.810291 1.3345808 17
-0.92402995 5.3831592 -1.5661715 11
-2.4987314 14.556962 1.3779591 9
-1.0071797 5.8675685 -1.5585093 10
-3.9077673 22.765642 2.7012007 5
-1.1006478 6.4120893 -1.5415194 8
-3.8327808 22.328789 3.1840024 6
-1.2242268 7.1320286 -1.5381308 13
-1.3389987 7.8006597 -1.4912151 28
-2.0618649 12.011891 2.2962563 16
-1.4544942 8.6269579 -1.4373605 96
-1.6911248 10.030471 -1.4295862 61
-2.0132301 11.940955 -1.4161093 11
-2.6704752 15.839236 -1.1232188 15
-3.3945098 20.133659 -0.95216531 11
-2.9688003 17.608675 -0.41459125 4
-3.1032672 18.406229 0 12
-3.6808338 21.831917 0.51402634 10
-2.6176257 15.525772 0.73424804 8
-0.83383799 4.9456954 -1.565034 7
-3.1268871 18.546326 1.3151885 17
-0.90741295 5.3820863 -1.5650691 11
-2.441951 14.483804 1.370342 9
-0.98622584 5.8495445 -1.5529379 8
-3.8322704 22.730124 2.6956255 11
-1.0832338 6.424922 -1.5438249 11
-1.8686008 11.083124 1.5796148 12
-1.2066358 7.1568499 -1.5427049 10
-2.031961 12.052053 2.0080249 8
-1.3220537 7.8414207 -1.4982508 30
-2.0249054 12.010205 2.2947752 19
-1.4259918 8.6137123 -1.4344424 30
-1.6561828 10.004183 -1.4251328 68
-2.0037491 12.103659 -1.4346935 74
-2.5157297 15.19628 -1.4370383 23
-2.6104362 15.768356 -1.1176382 12
-3.323993 20.0786 -0.94909078 17
-3.021045 18.248642 -0.42944616 4
-3.0385182 18.354189 0 17
-2.171325 13.115902 0.30865717 4
-2.5735087 15.545296 0.73480707 8
-0.81697834 4.9349627 -1.5608637 9
-3.0477355 18.409864 1.3048646 16
-0.89175487 5.386651 -1.5656203 11
-3.0461955 18.400564 1.7400519 10
-0.96949852 5.8562622 -1.5539508 8
-3.766114 22.749235 2.6965549 5
-1.0628957 6.4204278 -1.5419805 11
-1.9408393 11.723652 1.6700774 9
-1.1796458 7.125658 -1.53522 12
-1.98169 11.970411 1.993434 19
-1.2984624 7.8433704 -1.4978805 30
-1.9738554 11.923086 2.2770007 12
-1.4060533 8.6429834 -1.4386576 50
-1.6425519 10.096736 -1.4376583 74
-1.9530383 12.00529 -1.4223815 11
-2.6881316 16.523895 -1.1706532 35
-2.7758179 17.062902 -0.80617291 4
-3.0731351 18.890505 -0.4443475 4
-2.9946415 18.408007 0 18
-2.1346922 13.121914 0.30865717 8
-2.0710366 12.730624 0.60148525 11
-0.80288839 4.9353404 -1.560268 9
-2.9777358 18.304087 1.2967728 16
-0.87454909 5.3758368 -1.5617614 10
-3.0114303 18.511206 1.7497126 10
-0.9556275 5.8742247 -1.5580029 10
-1.0443385 6.4195294 -1.5410583 11
-1.9182715 11.791579 1.6789844 6
-1.1660264 7.1675425 -1.5435365 7
-1.9558624 12.02265 2.0012159 10
-1.2793963 7.8644252 -1.5012133 26
-1.966117 12.085685 2.3069954 8
-1.4018465 8.7716007 -1.4594091 43
-1.5952858 9.9819841 -1.4206791 68
-1.9304798 12.079352 -1.4305121 57
-2.662446 16.659393 -1.1797215 22
-2.7067218 16.936436 -0.79983747 12
-3.0150096 18.865448 -0.44355831 14
-3.8358228 24.001421 0 22
-2.9907129 18.713417 0.43998387 15
-2.4844458 15.545616 0.73415488 6
-0.78880262 4.9356771 -1.5596722 10
-2.9297612 18.332033 1.2981679 5
-0.85983777 5.3801565 -1.5623126 11
-2.9320736 18.346502 1.7333637 16
-0.93769401 5.8673167 -1.5554703 10
-3.6474717 22.822874 2.7028267 5
-1.0264088 6.4224205 -1.5410583 11
-3.7841153 23.677876 3.3699377 7
-1.1438463 7.1572475 -1.5406258 12
-2.9852691 18.679356 3.1078503 16
-1.257741 7.8699074 -1.5015836 48
-3.6882365 23.077946 4.4032874 7
-1.3843817 8.8203239 -1.4668665 37
-1.5760002 10.041185 -1.4284729 29
-1.768912 11.270286 -1.334107 10
-2.2632835 14.420079 -1.3617959 6
-2.6239522 16.718012 -1.1833488 19
-2.9115667 18.550493 -0.87567532 15
-2.9607599 18.863918 -0.44332621 4
-2.9032569 18.497549 0 6
-2.9384379 18.721697 0.43998387 15
-2.4472156 15.591969 0.73601824 8
-0.77442306 4.9340892 -1.5584807 10
-2.8841202 18.375624 1.3006793 11
-0.8451066 5.3844361 -1.5628638 11
-2.8783531 18.338879 1.7318774 13
-0.92310405 5.8813815 -1.5585093 10
-3.9773567 25.340971 2.9997082 7
-1.0114856 6.444488 -1.5456694 11
-1.7928077 11.422533 1.6249852 8
-1.1238528 7.1604142 -1.5406258 10
-1.8648146 11.881311 1.975925 10
-1.2516038 7.9743552 -1.5208395 30
-3.5762284 22.785259 4.34552 13
-1.2295167 7.9975643 -1.3293884 27
-1.5306057 9.9560394 -1.415669 61
-2.5923398 16.862238 -1.1929753 20
-2.755528 17.923719 -0.84567565 4
-2.8823457 18.748623 -0.44040164 9
-4.2503796 27.647192 0 14
-4.4892526 29.200975 0.68592548 16
-3.3951552 22.084265 1.0419782 15
-0.7589193 4.9364972 -1.5584807 9
-3.6397648 23.675362 1.6749924 17
-0.82731146 5.3813639 -1.56121 10
-2.821032 18.349798 1.7320633 10
-0.90256578 5.8708658 -1.5549639 10
-3.8684518 25.162889 2.977175 7
-0.99064451 6.4437866 -1.5447472 11
-1.7632359 11.469215 1.6308305 6
-1.0992728 7.1503744 -1.537715 13
-1.8259821 11.877357 1.9743037 12
-1.2253524 7.9704771 -1.5193582 26
-3.5798926 23.285915 4.4388366 24
-1.3398857 8.8910646 -1.4772422 49
-1.5287983 10.144629 -1.4418335 32
-1.6855267 11.18463 -1.3227242 5
-2.0267797 13.449078 -1.268904 6
-2.5330751 16.808697 -1.1886504 16
-2.5924737 17.202848 -0.811297 4
-2.7405901 18.185703 -0.42698583 4
-3.640203 24.155252 0 11
-4.0915179 27.150038 0.6374613 14
-3.3415167 22.173264 1.0457048 5
-0.74341404 4.933064 -1.5566936 10
-2.7661657 18.355413 1.2980285 16
-0.81105286 5.3818941 -1.5606588 10
-2.772207 18.395502 1.735593 10
-0.88225758 5.8543863 -1.5498989 8
-3.40628 22.603012 2.6730924 17
-0.97093904 6.4428487 -1.5438249 11
-3.3810644 22.43569 3.1887343 6
-1.082423 7.1826215 -1.5439523 9
-1.7974938 11.927608 1.9817615 4
-1.2195615 8.0926294 -1.5419466 12
-3.4999423 23.224527 4.4251356 10
-1.3049512 8.8264399 -1.4658939 61
-1.4865612 10.054815 -1.4284729 74
-2.4864213 16.817678 -1.1887898 27
-2.5342004 17.140846 -0.80803621 12
-2.6433015 17.878786 -0.41960478 13
-3.2846146 22.216505 0 18
-3.2571185 22.030527 0.51704371 10
-3.2661471 22.091595 1.0414191 5
-0.72851944 4.9275661 -1.5543106 9
-2.7131493 18.351223 1.2971914 16
-0.79602158 5.3841376 -1.5606588 10
-2.7217035 18.409081 1.7361504 6
-0.86534071 5.8529992 -1.5488858 8
-3.3797579 22.860035 2.7023623 5
-0.95294458 6.4455347 -1.5438249 11
-3.3062372 22.362755 3.1770437 6
-1.0612179 7.177875 -1.542289 10
-3.340744 22.596153 3.7527659 9
-1.2006962 8.1212797 -1.5467607 8
-3.4514627 23.345034 4.4462428 10
-1.2890741 8.8905964 -1.4759452 61
-1.4885983 10.266692 -1.4579775 32
-1.6680694 11.504483 -1.3594278 7
-2.1413667 14.768762 -1.3922645 27
-2.4385839 16.818634 -1.1883713 13
-2.6287959 18.130503 -0.85434008 14
-2.6102865 18.002846 -0.42234367 4
-3.2254245 22.245384 0 9
-3.1990209 22.06328 0.51760077 10
-3.1921091 22.015612 1.037413 20
-0.71557659 4.9352498 -1.5560979 9
-2.6570199 18.325161 1.2948196 16
-0.78015387 5.3806319 -1.5590049 11
-2.6639929 18.373255 1.7320633 10
-0.85010135 5.8630519 -1.5509118 8
-3.2782748 22.609886 2.6716986 23
-0.93326408 6.4366155 -1.5410583 11
-3.2474632 22.397383 3.1806624 6
-1.0411671 7.1808109 -1.542289 10
-1.1780101 8.1246014 -1.5467607 8
-3.3851223 23.346802 4.4447613 3
-1.2819177 9.041152 -1.5002635 67
-1.4560612 10.269357 -1.4576992 61
-2.384057 16.814358 -1.1875342 10
-2.8500452 20.100893 -0.94676167 5
-3.81458 26.903597 -0.63086945 16
-3.8091502 26.865301 0 14
-2.6716094 18.842415 0.44184074 7
-3.1111546 21.942453 1.0335 15
-0.69899732 4.9299116 -1.5537148 9
-2.6120439 18.42231 1.3010978 22
-0.76054847 5.3640218 -1.5534922 10
-3.2377698 22.835449 2.1517489 11
-0.82977772 5.852284 -1.5473663 8
-3.2214544 22.720381 2.6835461 17
-0.91221994 6.4337349 -1.539675 11
-3.2018332 22.581995 3.2054353 13
-1.0191536 7.1879201 -1.5431207 12
-3.2938664 23.231091 3.854902 15
-1.1527576 8.130208 -1.5471309 8
-3.3054183 23.312565 4.4362445 7
-1.2427448 8.9330578 -1.4817816 97
-1.4037931 10.090699 -1.4318129 74
-1.6143761 11.604405 -1.3701137 18
-2.3449805 16.856112 -1.1900455 6
-2.7949374 20.090479 -0.94592321 17
-3.0848501 22.174417 -0.5197826 6
-2.5466447 18.305708 0 17
-3.0699725 22.067476 0.51727581 10
-3.0581064 21.982182 1.0349907 20
-0.68477398 4.9222698 -1.5507361 9
-2.5547364 18.363873 1.2964938 39
-0.74623889 5.36409 -1.552941 10
-2.5545664 18.362652 1.729648 10
-0.81392145 5.8506036 -1.5463533 8
-3.1518378 22.655937 2.6749506 23
-0.89591068 6.4399557 -1.5405971 11
-3.1525309 22.660919 3.2154558 13
-0.99925512 7.1828132 -1.5414574 12
-1.1303871 8.125411 -1.5456498 8
-3.4317837 24.668236 4.6924953 3
-1.2516216 9.2087402 -1.5268511 18
-1.3736876 10.106835 -1.433483 61
-1.6102854 11.84759 -1.3982221 44
-2.0261919 14.907601 -1.4035972 16
-2.6595995 19.567865 -1.3808992 17
-2.7199721 20.012054 -0.94182378 11
-3.0574532 22.495052 -0.52707076 6
-2.5015168 18.404781 0 5
-3.0025196 22.090881 0.51760077 10
-2.9874222 21.979803 1.0344317 20
-0.66930771 4.924397 -1.5507361 9
-2.4755397 18.213654 1.2853328 22
-0.72860765 5.360693 -1.5512872 10
-2.497942 18.378477 1.730391 10
-0.7968412 5.8627176 -1.5488858 10
-3.0886767 22.724777 2.6819196 5
-0.87593788 6.4446673 -1.5410583 11
-3.0874631 22.715849 3.2218575 13
-0.9761591 7.1820397 -1.5406258 13
-3.1552346 23.214474 3.8490655 10
-1.1056503 8.1347647 -1.5467607 8
-3.2036595 23.570759 4.481792 14
-1.2308446 9.2493696 -1.5330117 10
-1.3574733 10.20094 -1.4462869 47
-1.5826937 11.893394 -1.4031006 44
-1.9078472 14.336809 -1.3493484 13
-2.2467537 16.883574 -1.191022 3
-2.6482594 19.900749 -0.93623382 22
-3.0112333 22.628372 -0.52999532 13
-2.4445655 18.370062 0 5
-2.9392292 22.087286 0.51732224 10
-2.9958618 22.512861 1.0591209 10
-0.65605587 4.9300318 -1.5519274 9
-2.4354527 18.30158 1.2910528 38
-0.71337974 5.3608007 -1.5507358 10
-3.073097 23.093256 2.1734858 11
-0.77765715 5.843823 -1.5433143 8
-3.0065939 22.59351 2.6654265 23
-0.85613865 6.4335842 -1.5378305 11
-3.0206132 22.698858 3.2182391 27
-0.95635515 7.186677 -1.5410416 13
-3.123971 23.475557 3.8908927 15
-1.0826677 8.1358719 -1.5463904 8
-3.1175959 23.42765 4.452908 10
-1.2067964 9.26647 -1.5352814 12
-1.3302622 10.214511 -1.4476787 82
-1.5397284 11.822912 -1.394273 24
-1.8618913 14.296661 -1.3450754 3
-2.3573794 18.101303 -0.85126561 4
-2.9464853 22.624794 -0.52971679 13
-2.4428506 18.757599 0 6
-2.4902205 19.121332 0.44768983 16
-2.9670424 22.782642 1.071419 11
-0.64154726 4.9261651 -1.5501404 9
-2.4253056 18.622879 1.3132353 23
-0.69791108 5.3589592 -1.5496333 9
-2.9707968 22.81147 2.1461756 11
-0.76258534 5.8555646 -1.5458468 10
-2.9468279 22.627424 2.6684463 23
-0.83691376 6.4263005 -1.5355248 11
-2.9272928 22.477423 3.1856725 13
-0.93603098 7.1873794 -1.5406258 13
-3.0120211 23.128014 3.8318808 5
-1.0591838 8.1330166 -1.5452795 8
-3.0371897 23.321274 4.4310603 14
-1.1789243 9.2800045 -1.5369027 13
-1.3111471 10.320807 -1.4621527 61
-1.5183522 11.95184 -1.408908 38
-2.5194151 19.831793 -1.3979198 31
-2.2906854 18.031328 -0.84763211 13
-2.8794293 22.665678 -0.53045958 13
-2.9974096 23.594368 0 10
-2.4256048 19.093359 0.44685426 24
-2.8743091 22.625372 1.0635929 11
-0.62606901 4.9281564 -1.5501404 9
-2.3454194 18.462172 1.3013767 16
-0.68058842 5.3573108 -1.5485307 10
-2.2659431 17.836567 1.6774427 6
-0.74126095 5.8348994 -1.5397688 8
-2.8707249 22.597158 2.6638005 23
-0.81721264 6.4327598 -1.5364472 11
-2.8599129 22.512051 3.189291 20
-0.91320145 7.188344 -1.54021 12
-2.8304131 22.279842 3.6898632 9
-1.034868 8.1460533 -1.5471309 8
-2.97506 23.418442 4.4477239 14
-1.1555967 9.2908936 -1.5381997 12
-1.3097872 10.530571 -1.491379 37
-1.4885244 11.967603 -1.4103018 35
-1.8387514 14.783396 -1.3898493 42
-2.471314 19.869141 -0.93371826 11
-3.1191835 25.077955 -0.58672255 7
-2.3384752 18.80113 0 18
-2.3904116 19.218695 0.44963956 8
-2.3869805 19.191109 0.90185523 3
-0.61269212 4.9259896 -1.5489488 9
-3.0727768 24.704849 1.7408426 28
-0.66584712 5.3533511 -1.546877 10
-2.8140442 22.624662 2.1270397 10
-0.72574198 5.8348999 -1.5392622 8
-2.8132648 22.618397 2.6654265 5
-0.79988641 6.4310145 -1.5355248 11
-2.7867813 22.40547 3.173147 13
-0.89413553 7.1887693 -1.5397941 10
-2.7710934 22.279343 3.6885662 9
-1.0128077 8.1428833 -1.5460202 12
-2.915431 23.439802 4.450316 14
-1.1294534 9.306036 -1.5401449 12
-1.2787771 10.536376 -1.4916574 24
-1.4671323 12.088313 -1.4240077 35
-1.7243447 14.207593 -1.3352288 25
-2.4201505 19.940624 -1.4046164 36
-2.4145203 19.894236 -0.93455678 5
-2.4162521 19.908506 -0.4656086 5
-2.2875037 18.847692 0 18
-2.7932644 23.014866 0.53825837 11
-2.2994628 18.94623 0.89002305 16
-0.5978446 4.92589 -1.5483531 10
-2.2670281 18.678986 1.3157467 17
-0.65019315 5.3572116 -1.5474283 10
-0.70772809 5.8312654 -1.5377429 8
-2.7303503 22.49649 2.6500945 22
-0.78056842 6.4314275 -1.5350637 11
-2.7100337 22.329094 3.1611781 19
-0.87233204 7.1875062 -1.5389625 12
-3.2216766 26.544731 4.3931422 19
-0.98817086 8.1419506 -1.5452795 12
-2.8205376 23.23958 4.4106932 14
-1.1029938 9.3191452 -1.5417662 10
-1.2507652 10.567658 -1.4955542 34
-1.4263525 12.051188 -1.4191293 49
-2.4996555 21.119476 -0.99176127 6
-2.468796 20.858747 -0.48765883 11
-2.9306786 24.761171 0 11
-2.7390594 23.142189 0.5410437 11
-2.2427628 18.949001 0.88983673 13
-0.58232749 4.9200583 -1.54597 9
-2.2057281 18.636097 1.3122587 17
-0.6342935 5.359117 -1.5474283 9
-2.9294758 24.751009 2.3252711 19
-0.68996662 5.8294969 -1.5367298 8
-2.7270906 23.041065 2.7132804 18
-0.76102316 6.4298501 -1.5341414 11
-2.6477208 22.370474 3.16591 33
-0.85077041 7.1881208 -1.5385467 12
-2.6395307 22.301275 3.689539 4
-0.96446836 8.1487494 -1.5460202 12
-2.7564161 23.288836 4.4184699 14
-1.0767363 9.3202295 -1.5414419 10
-1.2217014 10.575047 -1.496111 35
-1.3858508 11.995924 -1.4121603 33
-2.2512126 19.486496 -1.3716913 13
-2.4569414 21.267284 -0.99837613 6
-2.9777694 25.775572 -0.602413 7
-2.2466102 19.446659 0 19
-2.658813 23.014685 0.53788704 11
-2.2063406 19.098083 0.89654469 27
-0.56770784 4.9140787 -1.543587 10
-2.1545882 18.650114 1.3128169 17
-0.6188826 5.357048 -1.5463256 9
-2.9268422 25.334745 2.3793342 21
-0.67346108 5.8294792 -1.5362233 8
-2.6786885 23.186728 2.7295418 18
-0.74149925 6.4184175 -1.5309137 11
-2.5852337 22.377781 3.16591 26
-0.82956922 7.1807513 -1.5364676 12
-2.5792749 22.326202 3.6924572 4
-0.94102991 8.1455545 -1.5449092 12
-2.6814392 23.210535 4.4021764 7
-1.0513698 9.3290834 -1.5424148 9
-1.1872877 10.535119 -1.4899873 82
-1.375262 12.203066 -1.4360873 55
-1.6558483 14.692781 -1.3794453 13
-2.0021806 17.765879 -1.2501755 7
-2.5252988 22.407646 -1.0515743 7
-3.5775373 31.744438 -0.74167782 13
-2.2135775 19.641661 0 27
-2.1348338 18.942947 0.44258347 15
-2.1666512 19.225271 0.90222788 17
-0.55419761 4.9175425 -1.5441827 10
-2.108758 18.711569 1.3167232 17
-0.60327554 5.353024 -1.5446718 10
-2.8431528 25.22805 2.3685586 13
-0.65631378 5.8236465 -1.5341972 8
-2.5734444 22.834854 2.6872628 17
-0.72313797 6.4165955 -1.5299914 11
-2.5364883 22.506935 3.1831675 20
-0.80973387 7.1849837 -1.5368834 7
-2.6722958 23.71199 3.9203987 5
-0.9187212 8.1520576 -1.5456498 12
-3.0251327 26.842804 5.0894608 12
-1.0229176 9.3401861 -1.5437117 10
-1.1712204 10.694328 -1.5119767 35
-1.3261077 12.108593 -1.4244723 52
-2.767874 25.273258 -1.1856415 9
-2.8184595 25.735149 -0.60106683 7
-2.1522999 19.652494 0 6
-2.0792341 18.985336 0.44341904 7
-2.0988514 19.164461 0.89906025 16
-0.53791547 4.9116673 -1.5417998 10
-2.0445368 18.66852 1.3132353 17
-0.58603799 5.3510704 -1.5435693 10
-2.5507805 23.290993 2.1859334 11
-0.63717365 5.8179865 -1.5321712 8
-2.4960754 22.791485 2.6812229 17
-0.70149428 6.4052935 -1.5267636 10
-2.4793563 22.638823 3.2007031 6
-0.78694606 7.1855474 -1.5364676 9
-2.4983168 22.811951 3.7702749 14
-0.89267987 8.1509953 -1.5449092 10
-2.9236763 26.695877 5.0598369 12
-0.99599057 9.3351583 -1.5424148 12
-1.1543756 10.819659 -1.5292342 27
-1.5124332 14.175639 -1.3300269 12
-2.0173671 18.908253 -1.3296978 16
-2.4770629 23.21686 -1.0888411 7
-2.6467409 24.807209 0 11
-2.046355 19.179947 0.4478291 8
-2.0521026 19.233818 0.90204155 17
-0.5235883 4.9074554 -1.5400125 10
-1.9974709 18.721769 1.3165836 11
-0.57068312 5.3488631 -1.5424668 10
-2.4910042 23.347528 2.1905777 17
-0.62051195 5.8158956 -1.5311583 8
-2.4461112 22.926758 2.6963224 17
-0.68339616 6.405293 -1.5263025 10
-2.4785247 23.23056 3.2833719 7
-0.76500702 7.1702099 -1.5327251 12
-2.5049467 23.478207 3.87922 20
-0.86970347 8.1515026 -1.5445389 10
-2.4983904 23.416758 4.436985 7
-0.97012365 9.3398657 -1.542739 12
-1.1274326 10.854359 -1.5336877 24
-1.2619474 12.1494 -1.4284214 13
-1.9031364 18.322447 -1.2881231 3
-2.4021099 23.126314 -1.084276 22
-2.6057682 25.087036 0 12
-2.0144799 19.394407 0.45270339 16
-1.9924015 19.181847 0.89933974 23
-0.51008022 4.9107976 -1.5406083 10
-1.9468343 18.743151 1.3176998 17
-0.55455327 5.3389621 -1.5391591 10
-2.4223025 23.320721 2.1874194 17
-0.60346991 5.8099074 -1.5291321 8
-2.3634067 22.753698 2.6751831 5
-0.66369814 6.3897548 -1.5221524 10
-2.4140563 23.241329 3.2839286 7
-0.74397177 7.1625891 -1.5306461 12
-2.4240856 23.337887 3.854902 10
-0.84632909 8.1480341 -1.5434279 12
-2.756052 26.533894 5.0261393 8
-0.94280517 9.3466291 -1.5433874 13
-1.0966154 10.871449 -1.5356361 21
-1.2506174 12.398169 -1.4572268 40
-1.4887259 14.75869 -1.3839042 16
-1.8521712 18.361755 -1.2904947 3
-2.3471208 23.268507 -1.0906112 31
-2.3825502 23.619741 -0.55116355 6
-2.5108526 24.891685 0 11
-1.9011439 18.847254 0.43979815 7
-2.4575996 24.363754 1.1419463 13
-0.49435854 4.9008923 -1.5370338 11
-1.8982254 18.818321 1.3225827 23
-0.53813195 5.3348455 -1.5375051 10
-2.3503041 23.300066 2.1848185 17
-0.58506495 5.8001227 -1.5260932 8
-2.3042619 22.84362 2.6849396 11
-0.64610481 6.4052496 -1.5253803 10
-0.72212893 7.1589255 -1.5293986 12
-2.3714719 23.509916 3.8821383 15
-0.82136208 8.1426868 -1.5419466 10
-2.6964507 26.731638 5.0620589 12
-0.91324717 9.3475809 -1.5430632 13
-1.0655398 10.90638 -1.5400897 16
-1.2238324 12.526589 -1.4718617 43
-2.2670202 23.204185 -1.0872574 7
-2.3044512 23.587313 -0.55023515 13
-2.4616218 25.196039 0 12
-1.8421221 18.855122 0.43984461 23
-1.8944285 19.390507 0.90856326 10
-0.47858912 4.8986201 -1.5358423 11
-2.319633 23.742706 1.6681564 8
-0.52043575 5.3269429 -1.5347489 10
-2.2896841 23.436161 2.1968944 23
-0.56627715 5.796155 -1.5245738 8
-0.62522328 6.3994999 -1.5235357 10
-2.8688498 29.364239 4.1465235 10
-0.69925588 7.1572642 -1.5285668 10
-2.2475207 23.004597 3.7975113 19
-0.79539645 8.1413155 -1.5412061 10
-2.6292801 26.912111 5.0946455 8
-0.88620532 9.3402719 -1.5414419 15
-1.037508 10.934945 -1.5437082 13
-1.1942843 12.587309 -1.4785985 54
-1.8449403 19.444979 -1.3658319 29
-2.2464991 23.677258 -0.55218482 13
-2.373486 25.015654 0 12
-1.7877561 18.842279 0.43942681 15
-2.3546808 24.817453 1.1625361 13
-0.46526697 4.9037395 -1.5370338 11
-2.3279412 24.535629 1.7234035 9
-0.50573802 5.3302889 -1.5353001 10
-2.2324979 23.52969 2.2050688 17
-0.54953903 5.791935 -1.5230542 10
-2.3531058 24.800854 2.9132919 14
-0.60679662 6.3954091 -1.5221524 10
-2.6186507 27.599596 3.8962905 19
-0.67852503 7.1513996 -1.5269036 10
-2.1953807 23.138489 3.8185868 10
-0.77135652 8.1298084 -1.538614 10
-2.5425992 26.798042 5.0716867 17
-0.86066335 9.3307676 -1.5394965 15
-1.0105157 10.955373 -1.5462133 13
-1.1531183 12.501379 -1.4681449 37
-1.3692231 14.844251 -1.3907782 78
-1.8277485 19.815294 -1.3915023 30
-2.1889157 23.730841 -0.55329895 6
-2.321034 25.163181 0 12
-2.3272038 25.23007 0.58825445 13
-2.2331872 24.210804 1.1338408 12
-0.45225284 4.9030395 -1.5364381 10
-1.7304419 18.760357 1.3174208 5
-0.49089962 5.3220234 -1.5325438 10
-2.1560781 23.374834 2.1900203 17
-0.53384167 5.7875738 -1.5215347 8
-2.2887208 24.812864 2.9139888 7
-0.58754992 6.3698449 -1.5156968 10
-2.4254196 26.294865 3.71119 8
-0.65926248 7.1473069 -1.5256561 10
-2.1402385 23.203114 3.8283141 15
-0.74952984 8.1259279 -1.5375032 12
-2.4749649 26.832005 5.0768709 8
-0.831343 9.3334255 -1.5394965 15
-0.97486031 10.944685 -1.5442649 14
-1.1268765 12.65136 -1.4853352 28
-1.3451916 15.102366 -1.4145585 23
-1.7525604 19.675865 -1.3813176 21
-2.3779595 26.697176 -1.2499266 10
-2.1182482 23.781416 -0.55432028 7
-3.6416147 40.88414 0 29
-2.2465031 25.221323 0.58788306 12
-2.1631351 24.285357 1.1370084 6
-0.43566012 4.8911238 -1.5322677 10
-2.1345448 23.964375 1.6823866 8
-0.47400543 5.3216238 -1.5319924 10
-2.0958772 23.530258 2.2039542 17
-0.51702839 5.8046398 -1.5255867 10
-2.5609388 28.751471 3.375572 28
-0.56891507 6.387167 -1.5193857 10
-2.3456039 26.333921 3.7156439 8
-0.63628256 7.143497 -1.5244086 11
-2.8158505 31.613346 5.2144446 12
-0.72329801 8.1204128 -1.5360219 12
-2.3929164 26.865097 5.0816846 8
-0.8042599 9.3239145 -1.537551 12
-0.94565672 10.96315 -1.5464916 14
-1.093935 12.682164 -1.4885875 45
-1.3071225 15.153681 -1.4190173 27
-2.3088965 26.767408 -1.252908 10
-2.8106394 32.584194 -0.75931799 14
-2.3731098 27.511843 0 43
-2.1745212 25.209572 0.58746529 12
-2.162616 25.071556 1.1735299 20
-0.42167255 4.8885179 -1.5310763 11
-2.210273 25.624048 1.7984614 10
-0.45831767 5.3133502 -1.5292362 10
-2.2054057 25.567621 2.394197 21
-0.50015271 5.7983503 -1.5235606 10
-2.2805676 26.438988 3.1033144 8
-0.55057585 6.3829141 -1.5180023 10
-2.4305215 28.177425 3.9747841 29
-0.61566043 7.1374502 -1.5227454 9
-2.0042048 23.235067 3.8315566 15
-0.69977552 8.1126099 -1.5341704 12
-2.429199 28.162094 5.3257155 4
-0.77544707 9.3124924 -1.5352814 13
-0.9129619 10.963934 -1.5462133 16
-1.0655349 12.796212 -1.5015963 60
-1.2555478 15.078113 -1.411586 30
-1.5027922 18.047319 -1.2663591 3
-2.4831212 29.820276 -1.3954532 12
-3.2891986 39.500614 -0.92026168 28
-2.2840066 27.429073 0 14
-2.2422431 26.927526 0.62734145 14
-2.1089456 25.326729 1.1851757 7
-0.40067136 4.811739 -1.5066504 12
-1.9797717 23.775457 1.6682957 8
-0.44175389 5.3051066 -1.5264797 10
-2.1341667 25.629618 2.399399 7
-0.48166308 5.7843843 -1.5195087 8
-2.1930501 26.33676 3.090538 16
-0.53082865 6.3748226 -1.5156968 10
-2.335736 28.050301 3.9558566 38
-0.5931831 7.1236491 -1.5194188 11
-1.933295 23.21731 3.8276656 15
-0.67554021 8.1126919 -1.5338 12
-2.3095908 27.736317 5.2438779 4
-0.74749434 9.3108177 -1.5346329 13
-0.87947297 10.954748 -1.5445431 14
-1.0418663 12.977526 -1.5225035 24
-1.2235488 15.240569 -1.4264487 33
-1.4570562 18.149147 -1.2731951 11
-2.4272377 30.233763 -1.4144593 37
-2.2078865 27.501516 0 14
-2.0328844 25.321684 0.58978635 13
-2.32108 28.911459 1.3525965 9
-2.2684479 28.255871 1.9822 11
-2.1360312 26.606483 2.4902472 22
-0.46558049 5.7992878 -1.5230542 10
-2.1109157 26.293646 3.0847304 32
-0.51175421 6.3744297 -1.5152357 10
-2.2507472 28.035391 3.9527946 28
-0.57172894 7.1214776 -1.5185871 9
-1.8696045 23.287863 3.8383656 5
-0.65193582 8.1205368 -1.5349109 8
-2.2230306 27.690153 5.23388 4
-0.72265923 9.306839 -1.5336602 13
-0.85063905 10.95504 -1.5442649 14
-1.016963 13.097059 -1.5362092 15
-1.120133 14.425745 -1.3499057 26
-2.1083248 27.152271 0 28
-1.9661252 25.32094 0.58964705 13
-2.6165762 33.697838 1.576197 17
-2.1292915 27.422295 1.9233254 11
-0.41181946 5.303658 -1.5253773 11
-2.064831 26.592133 2.4883895 22
-0.44919905 5.7850547 -1.5190021 10
-2.0183938 25.994087 3.0489562 15
-0.49431199 6.3660464 -1.51293 10
-2.1719811 27.972076 3.9430525 28
-0.55232692 7.1131973 -1.516508 11
-2.1823394 28.105476 4.6314592 7
-0.62961036 8.1084995 -1.5323188 10
-0.69372135 9.2912292 -1.530742 13
-0.81739575 10.947639 -1.5428731 14
-0.9801718 13.127751 -1.5394615 12
-1.1342643 15.191562 -1.4212468 43
-1.3729082 18.387794 -1.2893786 19
-2.1760941 29.145115 -1.362938 11
-2.9022908 38.871296 -0.90498894 26
-2.0316298 27.21026 0 14
-2.5181971 33.727009 0.78522128 26
-2.5277436 33.85487 1.5831844 17
-2.0393078 27.313093 1.9152337 11
-0.39035657 5.228169 -1.5033263 15
-1.9743614 26.443247 2.4738984 22
-0.42886427 5.7439146 -1.5078591 14
-1.9643371 26.308989 3.0851951 16
-0.47397354 6.3480773 -1.5083189 10
-1.9721903 26.414167 3.7226024 17
-0.53107488 7.112854 -1.5160922 9
-0.60408735 8.0907326 -1.5286158 10
-0.66558349 9.2853737 -1.5294451 13
-0.78434008 10.942114 -1.5417597 14
-0.94163883 13.136546 -1.5401583 12
-1.093452 15.254449 -1.4268203 60
-1.3350286 18.624619 -1.3057016 60
-2.177304 30.374973 -1.4201425 25
-3.0583732 42.666531 0 32
-1.9047498 26.572643 0.61852127 14
-2.2230124 31.01264 1.4499558 12
-1.8689544 26.073271 1.8278986 20
-0.3679682 5.1334238 -1.4757625 16
-1.897025 26.464878 2.4753845 30
-0.40932813 5.7104249 -1.498742 20
-1.8773125 26.189875 3.07056 16
-0.4552736 6.3513975 -1.5087799 10
-1.8929518 26.408052 3.7209325 8
-0.50912696 7.1026912 -1.5135972 9
-0.57895243 8.076807 -1.5256535 10
-0.6356017 9.2756062 -1.5274997 13
-0.7496919 10.940573 -1.541203 14
-0.90050292 13.141421 -1.5403907 12
-1.0662189 15.559784 -1.4550594 42
-1.2638299 18.443607 -1.292727 11
-2.0220516 29.508657 -1.3793354 11
-2.4467614 35.706627 -0.83094656 20
-2.3132145 33.757721 0.78559262 26
-2.2103939 32.257217 1.5078124 43
-1.7875843 26.086977 1.8284568 30
-0.35381174 5.1633248 -1.4840317 18
-1.8097948 26.411104 2.469811 22
-0.39046147 5.6981702 -1.4951966 20
-1.795302 26.199604 3.0710247 16
-0.43425474 6.3372636 -1.5050911 10
-0.48641086 7.0984001 -1.5123497 8
-0.55277091 8.0668201 -1.5234315 10
-0.60931021 9.2714367 -1.5265269 15
-0.71784031 10.922861 -1.5384196 14
-0.8626315 13.126045 -1.5382999 12
-1.030471 15.679938 -1.4660206 42
-1.2036889 18.315672 -1.2835191 15
-1.9735775 30.030516 -1.4034656 12
-2.4567933 37.383263 -0.8698014 23
-1.7395675 26.469753 0.61587524 14
-2.1246355 32.329052 1.510887 29
-1.714864 26.093857 1.8285961 30
-0.33800572 5.1431909 -1.4779676 20
-1.7344717 26.392212 2.4675815 22
-0.37645188 5.7281981 -1.5027941 16
-1.7281289 26.295698 3.0817106 16
-0.41477045 6.311265 -1.4986354 10
-0.46350881 7.0528812 -1.50237 9
-0.52959895 8.058527 -1.52158 10
-0.58254683 9.2593136 -1.5242572 15
-0.68571514 10.899128 -1.5348011 14
-0.82559508 13.122455 -1.537603 15
-0.98680055 15.684742 -1.4662064 94
-1.1532832 18.330908 -1.2843562 3
-2.1284025 33.829979 -0.78698528 17
-1.6645054 26.456549 0.61545748 13
-2.0230474 32.155411 1.502502 14
-1.6431091 26.116463 1.8298517 20
-0.32605469 5.1824894 -1.4889932 16
-1.6820124 26.734814 2.4991648 23
-0.35729384 5.6790214 -1.4896251 20
-1.9450567 30.915781 3.6225083 12
-0.39628717 6.2988024 -1.4954076 12
-0.44503784 7.0736718 -1.5065283 9
-0.50672048 8.0540895 -1.5204692 10
-0.55388778 9.2413006 -1.5210147 12
-0.6526596 10.889252 -1.533131 14
-0.78605819 13.114932 -1.5364416 15
-0.95824426 15.987758 -1.4942597 21
-1.6494812 27.520651 -1.2857027 10
-2.034826 33.949909 -0.78963125 17
-1.5887434 26.507277 0.61652523 14
-1.9203308 32.039619 1.4968188 42
-1.5651276 26.11326 1.8292937 10
-0.31021485 5.1757574 -1.4867879 16
-1.6043413 26.767517 2.5017657 15
-0.33210611 5.5410004 -1.4531568 22
-1.8506954 30.877794 3.6173975 12
-0.37445089 6.2474995 -1.4829572 12
-0.48176062 8.0379009 -1.5171363 10
-0.52879035 9.2269573 -1.5184208 13
-0.62313122 10.873128 -1.5306258 14
-0.75138193 13.110996 -1.5357447 15
-0.92333776 16.111485 -1.5055926 43
-1.1271377 19.667625 -1.3775508 35
-1.6041789 27.991602 -1.3075037 10
-1.947088 33.975082 0.79009551 27
-1.8389646 32.088421 1.4988686 42
-1.6173066 28.220671 1.9766194 11
-0.29259461 5.1055355 -1.4663908 22
-1.5342629 26.771627 2.5017657 15
-0.31217524 5.4472013 -1.4283382 22
-0.35553372 6.2037711 -1.4723516 14
-0.40541136 7.0740948 -1.5061125 9
-0.46026734 8.0312862 -1.5156553 12
-0.49852151 9.2049246 -1.5145299 13
-0.58779317 10.853277 -1.5275642 14
-0.70857996 13.083538 -1.5322601 12
-0.88068968 16.26145 -1.5193406 18
-1.0673983 19.708921 -1.3802016 39
-1.8692194 34.514107 -0.80249006 18
-2.7595506 50.953579 1.1847255 31
-1.748849 32.291534 1.5080919 43
-1.5303727 28.25749 1.9788517 11
-0.27593082 5.0949101 -1.4630831 22
-1.4540318 26.847897 2.5084541 15
-0.29160902 5.3843999 -1.4116236 20
-0.33414906 6.1698785 -1.4640515 14
-0.38265783 7.0655656 -1.5040333 8
-0.43439782 8.020916 -1.5134333 12
-0.47231007 9.1964273 -1.5129088 12
-0.55697674 10.844987 -1.5261724 13
-0.67000556 13.045789 -1.527614 12
-0.83742338 16.305609 -1.5232421 15
-1.0096992 19.660019 -1.3765743 39
-1.5098872 29.399263 -1.3728137 11
-1.7546846 34.165752 -0.79427344 17
-2.4574256 47.848942 0 39
-1.6776671 32.666134 0.75941086 23
-1.3489077 26.264805 1.2264485 7
-2.7706096 53.946999 3.777313 38
-0.26071689 5.0764613 -1.4575704 24
-1.3783424 26.837933 2.5071535 23
-0.27687043 5.3909903 -1.4131432 18
-0.31781763 6.1882796 -1.4682015 16
-0.3602176 7.0138564 -1.4928061 17
-0.41179726 8.0181723 -1.5126927 12
-0.44633695 9.1917953 -1.5119361 10
-0.52562976 10.824739 -1.5231105 14
-0.63231575 13.021814 -1.5245942 12
-0.79265404 16.323797 -1.5247284 15
-0.96078765 19.786316 -1.3852241 35
-2.3273711 47.929531 0 39
-1.5862356 32.666698 0.75931799 23
-1.2788438 26.336317 1.2296163 22
-2.6266108 54.092026 3.7869394 38
-0.24709763 5.0886912 -1.460878 20
-2.8644488 58.990025 5.5099783 41
-0.26462841 5.449718 -1.4283382 16
-3.5011966 72.103111 8.4418325 55
-0.29656923 6.107502 -1.4488345 18
-0.33901468 6.981617 -1.4857371 15
-0.38873497 8.0055494 -1.5101005 12
-0.42003694 9.1792059 -1.5096663 12
-0.49386212 10.792532 -1.5183787 13
-0.59549767 13.013608 -1.5234326 12
-0.74615872 16.306053 -1.5228705 18
-0.91255587 19.942385 -1.3959665 36
-1.4981201 32.738911 0.76089633 24
-1.2077641 26.393667 1.2321317 30
-2.4742796 54.071247 3.7849863 38
-0.23209628 5.0720768 -1.4559165 20
-0.24596056 5.3750572 -1.4085846 20
-0.27720082 6.0577607 -1.4368454 27
-0.31781909 6.9454055 -1.4778364 20
-0.36619943 8.002677 -1.50936 12
-0.39111534 9.1785088 -1.5093421 10
-0.45835403 10.756434 -1.5130901 11
-0.55359906 12.9916 -1.520645 12
-0.693914 16.284443 -1.5206411 26
-0.86765677 20.361755 -1.4251248 46
-1.8337402 43.033344 -1.0000139 26
-1.3950964 32.73946 0.76080346 24
-1.1365827 26.672785 1.2449888 15
-0.21313335 5.0017118 -1.4355195 24
-0.22783859 5.3468075 -1.4009869 22
-0.25477263 5.9788833 -1.4179395 19
-0.29608256 6.9483247 -1.4782522 27
-0.34063968 7.9939704 -1.5075084 12
-0.36351696 9.1302662 -1.5012361 15
-0.42783853 10.745798 -1.51142 11
-0.51668131 12.977215 -1.5187865 12
-0.6499368 16.324123 -1.524171 15
-0.82539088 20.730913 -1.4507951 28
-1.7102869 42.956383 -0.99811071 26
-2.1413388 53.78289 1.2496693 41
-1.0842605 27.232805 1.2709823 24
-0.19916357 5.0022874 -1.4355195 22
-0.2161378 5.4286203 -1.42226 18
-0.23675744 5.9465132 -1.4101006 23
-0.27652025 6.9452147 -1.4774207 28
-0.31753063 7.9752517 -1.5038055 14
-0.33715358 9.1510267 -1.5044786 12
-0.39559057 10.737123 -1.5100282 13
-0.47751898 12.960825 -1.5166959 12
-0.59930271 16.266281 -1.5185976 15
-0.77357751 20.996449 -1.4692107 19
-1.984633 53.866928 1.2514797 42
-1.0110357 27.441542 1.2805785 8
-0.18616191 5.0528088 -1.4498526 18
-0.19988832 5.4253712 -1.4212471 16
-0.218254 5.9238524 -1.4045672 22
-0.29270983 7.9447331 -1.4978805 18
-0.30605599 9.035614 -1.4853483 27
-0.36292344 10.714498 -1.5066881 13
-0.43851954 12.946302 -1.5148375 12
-0.54968393 16.228182 -1.5148818 22
-0.7154578 21.12228 -1.4778607 19
-0.98005599 28.933947 -1.3500811 22
-1.5066516 44.480499 -1.0332983 25
-1.8221424 53.794651 1.2496693 41
-2.0207779 59.658916 2.7837327 44
-0.16908497 4.9918528 -1.4322118 27
-2.4453321 72.192917 6.7391248 56
-0.18339546 5.4143381 -1.4182081 20
-0.20291485 5.9906039 -1.4202452 21
-0.26846838 7.9259243 -1.4941776 16
-0.28138497 9.1055231 -1.4966967 19
-0.33064899 10.69969 -1.5044613 11
-0.3994388 12.925706 -1.5122821 12
-0.50061965 16.199884 -1.512095 15
-0.65446144 21.178154 -1.4816276 19
-0.86392307 27.956261 -1.3043361 10
-0.15659234 5.0672755 -1.4537115 20
-0.16751285 5.4206595 -1.4197277 22
-0.18676645 6.0436997 -1.4326954 18
-0.24386299 7.8913245 -1.487512 18
-0.25384659 9.0313082 -1.4843755 25
-0.29876202 10.629301 -1.4944409 16
-0.36216587 12.885072 -1.5074039 15
-0.45336002 16.12956 -1.5054069 14
-0.59559214 21.189871 -1.4823251 19
-0.778377 27.692957 -1.2919449 10
-0.14368203 5.1118937 -1.4663908 22
-0.15199269 5.4075685 -1.4161822 22
-0.16813695 5.9819465 -1.4179395 17
-0.21972449 7.8173184 -1.4734404 20
-0.22862698 9.0319824 -1.4843755 24
-0.26727584 10.558818 -1.4844204 19
-0.32583287 12.872132 -1.5057777 12
-0.40660545 16.06308 -1.4990902 14
-0.5361172 21.179482 -1.481488 19
-1.5224116 60.143356 2.8056269 45
-0.12789913 5.0526958 -1.4493014 22
-0.13552135 5.3538146 -1.402 22
-0.15044765 5.9434829 -1.4087172 19
-0.16499662 6.5182447 -1.3859395 18
-0.20033191 7.9141765 -1.4915855 22
-0.1992905 8.9892492 -1.4772422 24
-0.23191021 10.460602 -1.4705032 32
-0.28482243 12.847274 -1.5027578 12
-0.35481885 16.004551 -1.4935167 14
-0.46869704 21.141171 -1.4786978 19
-0.64902264 29.274984 -1.3655467 11
-1.3398463 60.435455 2.8190429 45
-0.1114294 5.0261636 -1.4415834 16
-0.12187563 5.497354 -1.4394813 20
-0.13341519 6.0178604 -1.4262397 19
-0.15332153 6.915761 -1.4703517 23
-0.17564359 7.9226255 -1.4930665 18
-0.17517026 8.9601431 -1.4723787 27
-0.20509601 10.490876 -1.4746783 32
-0.24814859 12.693062 -1.4846383 43
-0.311932 15.955649 -1.4888719 14
-0.41321418 21.136341 -1.4782792 19
-0.58149314 29.743986 -1.3873477 11
-0.097702898 4.9976058 -1.4333143 22
-0.10952098 5.6021132 -1.4668324 16
-0.11719877 5.9948401 -1.4207063 19
-0.13253343 6.7792244 -1.4412439 60
-0.1541654 7.8857226 -1.4860307 22
-0.14852467 8.9566755 -1.4717301 28
-0.17450039 10.523123 -1.4791318 27
-0.2106595 12.703673 -1.4857998 23
-0.2632131 15.872881 -1.4810692 14
-0.34975272 21.091593 -1.4750705 19
-0.50501728 30.454712 -1.420422 25
-0.081985049 4.9440508 -1.4178786 24
-0.093543991 5.6411047 -1.4769624 16
-0.099544227 6.0029445 -1.4225508 17
-0.11190399 6.7482915 -1.4345907 82
-0.13025115 7.8547039 -1.480106 24
-0.12056883 8.970911 -1.4739997 27
-0.14023946 10.434503 -1.4666061 22
-0.17037137 12.676464 -1.4825476 37
-0.21342148 15.879602 -1.4816265 14
-0.28275993 21.038723 -1.4713036 14
-0.41126299 30.599979 -1.42713 13
-0.0668386 4.9731193 -1.4261478 27
-0.075169846 5.5930047 -1.4642998 18
-0.081441686 6.05966 -1.4359232 20
-0.089728408 6.6762333 -1.4192053 100
-0.10522863 7.8295255 -1.475292 24
-0.1146572 10.426893 -1.4654928 26
-0.13939831 12.676843 -1.4825476 28
-0.17400894 15.824323 -1.4764246 14
-0.23074067 20.98349 -1.4673972 14
-0.053905364 4.9021387 -1.4057506 29
-0.061057407 5.5525432 -1.4536633 16
-0.066978186 6.0909772 -1.4433011 20
-0.074362502 6.7625046 -1.4375015 24
-0.085644521 7.7884884 -1.4675156 28
-0.069935933 8.9043465 -1.4629756 25
-0.081010006 10.314315 -1.4496272 100
-0.12378955 15.76107 -1.4704795 14
-0.16421658 20.908298 -1.4620957 19
-0.25334254 32.255947 -1.5042721 15
-0.03913736 4.983027 -1.4289041 27
-0.043854844 5.5836639 -1.4617673 14
-0.047596212 6.0600204 -1.4359232 20
-0.052224044 6.6492429 -1.4133838 46
-0.061559543 7.8378525 -1.4767731 20
-0.044072643 8.7071562 -1.4305515 30
-0.047797617 9.4430752 -1.3271548 10
-0.079486273 15.703605 -1.4650917 14
-0.1056205 20.866779 -1.4591659 14
-0.15991428 31.593264 -1.4733407 14
-0.025767772 5.0907769 -1.4597756 22
-0.028292485 5.5895691 -1.4632869 18
-0.030703854 6.065968 -1.4373065 20
-0.034746014 6.8645525 -1.4591243 23
-0.023743102 10.465127 -1.4707814 21
-0.028158754 12.411391 -1.4514192 63
-0.03549742 15.646017 -1.459704 14
-0.047215939 20.811131 -1.4552596 14
-0.011506368 5.0716038 -1.4542627 22
-0.012607025 5.5567346 -1.4546764 18
-0.013846396 6.1030059 -1.4460678 18
-0.015503325 6.833322 -1.4524713 44
-0.017675873 7.7909045 -1.467886 18
0.0090733813 10.397812 -1.4613178 29
0.010710896 12.274352 -1.4353905 57
0.017874811 20.483974 -1.4323794 41
0.027846579 31.91131 -1.4881543 15
0.0044340021 5.0812278 -1.4570191 15
0.0048421975 5.5490074 -1.4526502 22
0.0052967728 6.0699358 -1.4382288 22
0.0059048934 6.7668233 -1.4383332 55
0.0067230831 7.704443 -1.4515924 31
0.046706021 12.163025 -1.4223815 63
0.059766907 15.564296 -1.4520869 14
0.019378897 5.046587 -1.4470962 18
0.021352621 5.5605774 -1.4556893 20
0.023308394 6.0698934 -1.4382288 20
0.02672061 6.9584908 -1.4790839 19
0.029947123 7.7987285 -1.4693671 22
0.08323238 12.228384 -1.4300474 24
0.097478993 14.321476 -1.3361577 12
0.034571458 5.0791893 -1.4564679 18
0.037781578 5.5508156 -1.4531568 18
0.041300774 6.0678511 -1.4377676 18
0.047268953 6.9446874 -1.4761732 22
0.05309451 7.8005705 -1.4697374 26
0.097304188 10.324077 -1.4510189 27
0.29306802 31.094826 -1.4501421 13
0.047978941 5.0906162 -1.4597756 20
0.53031665 56.267151 5.2496953 35
0.051768161 5.4926562 -1.4379617 20
0.058123548 6.1669698 -1.4612848 16
0.063921846 6.7821746 -1.4416598 82
0.073407501 7.7886133 -1.4675156 35
0.09931045 8.0139399 -1.316743 2
0.12675604 10.228685 -1.4376583 60
0.14975636 12.084714 -1.4133217 19
0.18479386 14.912094 -1.3913355 13
0.23483576 18.950268 -1.3252335 4
0.38081571 30.730242 -1.4331858 13
0.063415475 5.1173649 -1.4674934 20
0.69653636 56.207584 5.2443075 35
0.067440622 5.4421778 -1.4247926 20
0.074418403 6.0052552 -1.4230119 25
0.69778395 56.308262 7.9142179 35
0.086031199 6.9423594 -1.4757574 19
0.096880339 7.8178396 -1.4730701 20
0.15541275 10.234231 -1.4384933 53
0.18585899 12.239175 -1.4314413 33
0.31054059 20.449701 -1.4301472 18
0.46302882 30.491346 -1.422099 12
0.078028262 5.1383128 -1.4735574 16
0.85348171 56.203426 5.2441216 35
0.083755799 5.5154815 -1.4440397 18
0.091898963 6.0517254 -1.4340787 20
0.85431904 56.258568 7.9075375 35
0.10476621 6.8990583 -1.4666092 27
0.11820655 7.7841306 -1.4667751 22
0.16052894 8.9288349 -1.4671907 19
0.18605466 10.34861 -1.4546374 26
0.21614221 12.02212 -1.4061204 24
0.26911557 14.968569 -1.3967233 13
0.3676064 20.44676 -1.4300078 18
0.51168251 28.460466 -1.3274415 11
0.092514187 5.1457634 -1.4757625 15
1.0147139 56.439751 5.2664161 36
0.10026961 5.5771303 -1.4602479 22
0.10781766 5.9969625 -1.4211675 21
1.0114808 56.259918 7.9080944 35
0.12336227 6.8615746 -1.4587085 22
0.14015412 7.7955608 -1.4689969 20
0.1891606 8.9559097 -1.4717301 15
0.21739182 10.292532 -1.4468437 29
0.25793433 12.212039 -1.4284214 33
0.31403396 14.868105 -1.3874341 39
0.10815087 5.1204605 -1.4685959 15
1.2320828 58.333618 5.4434676 40
0.11791167 5.5825911 -1.4617673 20
0.12903948 6.1094432 -1.4479123 20
0.1457015 6.898315 -1.4666092 22
0.16572148 7.8461719 -1.4786247 15
0.2139363 8.9454823 -1.470109 19
0.24457367 10.226546 -1.4376583 34
0.2934643 12.270848 -1.4353905 49
0.36365065 15.205603 -1.4190173 37
0.48569146 20.308588 -1.4205208 36
1.399547 58.520329 4.0933099 32
0.1232784 5.1547341 -1.4785188 14
0.13202216 5.5203438 -1.4455593 22
0.1454037 6.0798764 -1.4409956 18
1.1550127 48.295433 6.7894216 22
0.16365711 6.8431201 -1.4549661 55
0.18763386 7.8456783 -1.4786247 16
0.21177703 7.9288378 -1.3031248 4
0.27609017 10.336694 -1.4532456 34
0.33032662 12.367282 -1.4467732 34
0.4128612 15.45734 -1.4426119 21
0.53531343 20.041897 -1.4019656 36
0.74039286 27.71998 -1.2931561 10
1.5640165 58.556084 4.0960999 32
0.13710712 5.1332297 -1.4724549 20
0.1428387 5.3478174 -1.4004805 22
0.16191266 6.0619378 -1.4368454 20
1.2900248 48.297955 6.790256 22
0.18166801 6.8015695 -1.4462339 100
1.3051767 48.865238 8.031127 21
0.20906875 7.8274412 -1.475292 20
0.30270258 10.199232 -1.4340398 27
0.37220323 12.54098 -1.4672158 17
0.46090516 15.529695 -1.4494859 14
0.59619337 20.088083 -1.405314 40
0.83792233 28.232874 -1.317193 10
0.15302056 5.1558599 -1.4790701 18
1.6914428 56.991314 5.3193645 37
0.15922098 5.3647761 -1.4050391 28
1.4294703 48.164436 5.6349354 21
0.18053202 6.0828285 -1.4419178 18
1.4339006 48.313709 6.7930393 22
0.20376179 6.86553 -1.459956 33
1.4572322 49.099846 8.0703602 21
0.23316546 7.8562546 -1.4808465 18
0.28999436 8.8821268 -1.4600575 27
0.41116533 12.593427 -1.4734879 11
0.50763506 15.548162 -1.4513437 17
0.66419774 20.34346 -1.4233111 27
0.92391217 28.298153 -1.3203608 11
0.15643778 4.7914734 -1.4959271 15
0.17001301 5.2072639 -1.4939545 13
1.8405994 56.375019 5.2623286 36
0.18120052 5.5499215 -1.4536633 18
1.5730979 48.18182 5.6374907 21
0.19858113 6.0822659 -1.4419178 22
1.5750608 48.24194 6.7835755 22
0.22541009 6.9039998 -1.4682724 24
1.5554595 47.641575 7.8313947 22
0.25442439 7.7926683 -1.4689969 20
0.31641972 8.8831997 -1.4603817 25
0.44768408 12.568328 -1.4707003 14
0.55298996 15.524695 -1.4493002 24
0.72960353 20.482964 -1.4332166 27
0.17092694 4.7986202 -1.4983101 15
2.0733297 58.206863 4.0728016 32
0.18580624 5.2163429 -1.4967109 12
0.20062988 5.6325035 -1.4754429 18
1.7136592 48.10944 5.6295924 21
0.22036943 6.1866736 -1.4668182 19
1.7226465 48.361752 6.8011117 22
0.24436365 6.8602896 -1.4591243 39
1.6964005 47.62492 7.8294487 22
0.28020549 7.8665175 -1.4830683 18
0.34000719 8.850728 -1.4551939 27
0.40446717 10.528687 -1.4808019 14
0.48483047 12.620625 -1.4769723 11
0.59992367 15.616615 -1.458032 14
1.1367213 29.589994 -1.3809192 11
0.18439671 4.8000317 -1.4989058 14
2.2327645 58.121105 4.0672212 32
0.19963092 5.1965928 -1.4911982 14
2.0713727 53.91991 5.0341859 30
0.21665144 5.6396546 -1.4774688 16
1.8522385 48.21563 5.642601 21
0.23846278 6.2074256 -1.4718904 19
1.8597127 48.410187 6.8086267 22
0.26682007 6.9455943 -1.4774207 23
1.8295084 47.62394 7.8300977 22
0.30269492 7.8794522 -1.4856604 20
2.2300739 58.05106 10.945452 58
0.36415559 8.8359413 -1.4529243 31
0.43476754 10.549284 -1.4838637 14
0.52007586 12.619221 -1.4769723 11
0.64484787 15.646713 -1.4610045 14
0.85022694 20.63007 -1.4438195 18
0.19795893 4.8033137 -1.5000973 14
0.21548915 5.2286706 -1.5005698 11
2.3943996 58.098171 5.4248896 39
0.23279956 5.6486936 -1.4800014 16
1.9910612 48.311493 5.6544485 21
0.25659952 6.2261801 -1.4765017 16
1.985528 48.177235 6.7766171 22
0.28911692 7.0151887 -1.4923903 17
1.9255304 46.721443 7.6825671 23
0.32534716 7.8942862 -1.4886229 22
0.39550114 8.9155893 -1.4662181 31
0.4676466 10.541929 -1.4830287 13
0.56033754 12.631416 -1.4785985 17
0.69409299 15.6466 -1.4611902 14
0.2140647 4.8255563 -1.5072464 13
0.23251231 5.2414117 -1.5044287 13
2.5272398 56.970337 5.3202929 37
0.25251806 5.6923914 -1.4916511 12
2.209482 49.807274 5.8303008 21
0.27572891 6.2156224 -1.4741961 19
2.1205597 47.802742 6.7248449 22
0.31263021 7.0474701 -1.4994593 16
2.0715268 46.697418 7.6796494 23
0.35206467 7.9364223 -1.4967697 18
2.094358 47.212093 8.903965 11
0.42410943 8.9933043 -1.4791877 22
0.49810278 10.562345 -1.4860905 13
0.59709793 12.661552 -1.4823153 14
0.73993123 15.690352 -1.4654633 14
0.97788817 20.736265 -1.4516323 23
3.437923 72.901672 3.4034786 57
0.22744626 4.8230324 -1.5066504 13
2.7035954 57.330143 4.0133691 33
0.24786931 5.2561059 -1.508839 11
2.6862841 56.963058 5.3202929 37
0.26868293 5.6974621 -1.4931705 12
2.3601322 50.046959 5.8591065 21
0.2929894 6.2128839 -1.473735 14
2.2541041 47.798615 6.7251229 22
0.33368695 7.075882 -1.5056967 13
2.212955 46.926044 7.7182341 22
0.37301722 7.9098864 -1.4919558 22
2.3156879 49.104511 9.2620487 10
0.44991389 9.0058823 -1.4814574 21
0.52710557 10.551022 -1.4846988 16
0.63374573 12.685626 -1.4853352 14
0.78573602 15.728002 -1.469179 14
1.0396795 20.811165 -1.4570732 14
3.6458979 72.979584 3.407578 57
0.24205844 4.8452601 -1.5137995 12
0.2627396 5.259233 -1.5099415 12
2.7031784 54.109257 5.0544362 31
0.28218049 5.6483793 -1.480508 16
2.6877201 53.799831 6.2993174 29
0.30898038 6.1848297 -1.4672793 19
2.4908557 49.859215 7.015995 22
0.35354504 7.0768762 -1.5061125 11
2.3405566 46.850693 7.7068858 46
0.3980487 7.9677019 -1.5030648 16
2.3422015 46.883621 8.844346 11
0.4770557 8.9827452 -1.4778907 25
0.55867749 10.519648 -1.4805236 19
0.67454737 12.701425 -1.4874259 15
0.83757657 15.771192 -1.473452 14
1.1121497 20.94128 -1.4664207 14
1.6986129 31.984119 -1.4936512 15
0.25667295 4.8330364 -1.5102251 12
0.27977195 5.2679806 -1.5126979 11
2.8698957 54.038853 5.048677 31
0.30197778 5.6861062 -1.490638 16
2.8830764 54.287037 6.3573923 30
0.32923648 6.1993752 -1.4709682 19
2.645499 49.813564 7.0107059 22
0.37619293 7.0835443 -1.5077757 12
2.4773824 46.648003 7.6747861 23
0.42380992 7.9801507 -1.5056568 18
