# .PCD v0.7 - Point Cloud Data file format
VERSION 0.7
FIELDS x y z intensity
SIZE 4 4 4 4
TYPE F F F F
COUNT 1 1 1 1
WIDTH 1409
HEIGHT 1
VIEWPOINT 0 0 0 1 0 0 0
POINTS 1409
DATA ascii
-2.6429121 5.4380326 -1.5828216 14
-5.2168317 10.734107 1.3956668 6
-2.8540251 5.8724165 -1.5470529 11
-5.6237392 11.571356 1.8081371 19
-3.4547143 7.1083894 -1.6799265 24
-6.4881124 13.349882 2.438617 11
-3.747463 7.7107468 -1.6152669 26
-6.1349459 12.62321 2.6443424 3
-4.0986757 8.5012236 -1.103664 10
-4.1277895 8.5616093 -0.88674647 9
-4.1096215 8.5239277 -0.6617099 4
-5.3376803 11.071093 -0.57316256 10
-5.0936956 10.565034 0.27230906 7
-2.0826843 4.319777 -1.6204321 21
-5.7957907 12.021276 0.62235463 8
-2.2569387 4.6812053 -1.6216302 21
-2.4396629 5.0602007 -1.6108248 16
-5.6126866 11.641493 1.2057375 11
-2.6174135 5.4288797 -1.5777565 17
-5.8737822 12.183042 1.9008265 10
-6.5138526 13.510636 2.464232 9
-5.6940889 11.810333 2.4702995 8
-3.9273503 8.2117138 -1.2792792 15
-4.0822339 8.5355606 -1.1064515 15
-5.0897918 10.642267 -1.1005838 2
-4.0888505 8.5493956 -0.66268647 6
-5.5496211 11.603726 -0.29863009 28
-5.5562944 11.61768 0 23
-5.041503 10.5413 0.2712878 10
-2.0715563 4.3314261 -1.6223528 18
-2.2306898 4.6641588 -1.6132897 20
-6.0385866 12.626107 0.97868335 6
-2.4104829 5.0400891 -1.6020044 22
-5.7625308 12.048901 1.2460525 5
-2.6370766 5.513875 -1.6000426 17
-5.1424327 10.752335 1.3938085 6
-2.7608161 5.7726021 -1.5161579 10
-5.5440922 11.592166 1.8059103 9
-6.5548248 13.705512 2.4960077 7
-5.6815515 11.87958 2.4810383 5
-3.8226023 8.0467577 -1.4636242 100
-3.9202831 8.2523804 -1.2840111 90
-4.0095811 8.4403572 -1.0927458 15
-3.7913053 7.980876 -0.82432312 2
-5.4324179 11.435495 -0.59039843 10
-5.52351 11.627249 -0.29886222 16
-5.6605916 11.915812 0 6
-5.0061636 10.53821 0.27087 14
-2.054517 4.3248549 -1.6178713 24
-2.2192891 4.6717081 -1.6138854 20
-6.0303335 12.694136 0.9827292 10
-2.3989279 5.0498562 -1.603107 22
-5.7702689 12.146688 1.2545986 15
-2.6574993 5.594161 -1.6213158 18
-5.2080231 10.963134 1.4193616 6
-2.8960037 6.0962243 -1.5991592 15
-5.5579128 11.699668 1.8203844 10
-3.3854294 7.1264887 -1.6770158 22
-5.4087195 11.385609 2.0709276 12
-3.6862717 7.7597756 -1.6185998 18
-5.5677791 11.720437 2.4447484 15
-3.722132 7.8956175 -1.4341183 27
-3.9109831 8.2962208 -1.2890214 69
-3.9785926 8.4396381 -1.0911196 10
-3.9253356 8.3266659 -0.64371276 2
-5.2664223 11.171463 -0.57595754 20
-5.3508692 11.350596 -0.29134193 26
-5.2295051 11.093151 0 7
-5.0183578 10.645252 0.2732375 10
-2.0513721 4.3514977 -1.625554 22
-2.2037907 4.674818 -1.6126939 21
-5.5519595 11.777162 0.91046154 8
-2.400331 5.0917315 -1.6141325 29
-5.758831 12.21599 1.2599864 9
-2.584789 5.4830155 -1.5868735 27
-5.1695452 10.96596 1.4177355 13
-2.9608889 6.2808213 -1.6452711 19
-5.4919295 11.649822 1.8100855 12
-3.3626032 7.1329627 -1.6761842 27
-5.3673425 11.385541 2.0680094 10
-3.6406052 7.7226782 -1.6086016 26
-5.5455532 11.763572 2.4503028 19
-3.6967199 7.8988318 -1.4328212 100
-3.9658732 8.4739351 -1.3149077 49
-4.3372874 9.2675419 -1.1965845 15
-4.8864617 10.440969 -0.80610585 3
-5.5900307 11.944294 -0.61499447 11
-5.3072824 11.340142 -0.290692 19
-5.6335845 12.037356 0.30856434 4
-2.0496521 4.3795195 -1.633877 18
-5.60358 11.973246 0.61648512 6
-2.1915355 4.6826839 -1.6132897 17
-2.3779521 5.0810027 -1.6086197 18
-5.7694292 12.327618 1.2698328 7
-2.512877 5.3692985 -1.5519248 23
-2.9326119 6.2661524 -1.6392765 16
-5.0228238 10.732336 1.6653454 8
-3.3161333 7.0856271 -1.6628778 19
-5.5931816 11.951028 2.1678758 9
-3.6081924 7.7096739 -1.6037875 64
-5.3710499 11.476396 2.3873513 8
-3.8118556 8.2044401 -1.486321 22
-3.7611082 8.0952139 -1.2545065 33
-3.7623198 8.0978212 -1.0441948 7
-3.9578512 8.5186739 -0.87634254 2
-7.6465716 16.458084 -1.2690098 3
-5.5532885 11.95261 -0.61462176 5
-5.2477942 11.295079 -0.2891601 4
-5.2997708 11.406952 0 19
-5.2242045 11.244307 0.2878603 11
-2.0565755 4.4264665 -1.6492428 18
-5.5869598 12.025083 0.61834842 6
-2.1905177 4.714757 -1.6222259 17
-5.6012645 12.055871 0.92957473 9
-2.3694251 5.0998278 -1.6124786 18
-5.5117927 11.863297 1.2204143 1
-2.5696146 5.530705 -1.5964972 19
-5.1642962 11.115363 1.4332997 100
-2.9093633 6.2619624 -1.6360487 19
-5.4342875 11.696479 1.8125906 12
-3.2938619 7.0895371 -1.6616304 24
-5.5822401 12.014924 2.1766303 9
-3.5593216 7.6608992 -1.5915675 18
-5.2892938 11.384401 2.365133 6
-3.6712589 7.9672303 -1.4412515 30
-3.7480922 8.1339703 -1.2586817 27
-3.9169037 8.5003195 -0.87318426 7
-4.4386683 9.6326332 -0.74165088 4
-5.8658085 12.72976 -0.32541537 2
-5.1684923 11.21647 0 21
-5.1930399 11.269743 0.2880924 11
-2.0490036 4.446672 -1.6543646 18
-5.729753 12.434498 0.6384725 12
-2.1701031 4.7094769 -1.6180557 22
-5.4631686 11.855967 0.91283321 14
-2.3654613 5.1334367 -1.6207477 15
-4.9127975 10.661571 1.095196 3
-2.5862358 5.6125531 -1.6177703 24
-5.0304236 10.91684 1.4056557 13
-2.8318515 6.1455789 -1.6033093 25
-5.4903498 11.914953 1.8437655 20
-2.691926 5.841918 -1.3672274 3
-5.4907832 11.915894 2.1555545 8
-3.4858861 7.5649409 -1.5693493 34
-5.2962766 11.493783 2.3843887 5
-3.7577732 8.2228422 -1.4853483 61
-3.6970019 8.0898619 -1.2500529 25
-3.6271508 7.9370117 -1.0205001 15
-3.8752828 8.4799795 -0.86984015 9
-4.4175081 9.6664896 -0.74318546 1
-5.6225715 12.303435 -0.63083285 11
-5.8025208 12.697205 -0.32411557 8
-5.1057987 11.172622 0 10
-5.1700773 11.313278 0.28878874 11
-2.0594387 4.5065098 -1.6742117 19
-2.1505368 4.705852 -1.6144812 20
-5.179605 11.334126 0.87139785 15
-2.3573143 5.1583276 -1.6262604 15
-5.0993133 11.158431 1.4346935 79
-2.7073753 5.9243383 -1.5433638 22
-5.4084396 11.834867 1.8287346 22
-5.462347 11.952829 2.1591213 8
-3.4147232 7.4721727 -1.5478717 56
-5.1367888 11.240436 2.3284729 13
-3.6638644 8.0769434 -1.4571394 26
-3.7046664 8.1668901 -1.2603518 12
-3.5984051 7.9326391 -1.0186417 10
-3.817034 8.4146032 -0.86203724 9
-4.0970802 9.0319624 -0.69351888 6
-5.5741577 12.288161 -0.62924898 11
-5.772819 12.726107 -0.32444051 2
-5.0820117 11.203231 0 10
-5.1351576 11.32039 0.28860307 11
-2.0264938 4.46738 -1.6575658 18
-5.3315163 11.753261 0.60185796 9
-2.1555257 4.7518296 -1.6281834 18
-5.1265016 11.301309 0.86777055 5
-2.338928 5.1561375 -1.6235042 11
-6.3902416 14.087208 1.4431692 17
-2.4897416 5.4886041 -1.5777565 10
-4.9286251 10.865092 1.3952023 8
-2.6779556 5.9035196 -1.5359859 13
-5.3344579 11.759746 1.8148174 17
-3.0556316 6.7361016 -1.5722283 15
-5.4264975 11.962646 2.1581485 17
-5.0996928 11.242209 2.3258808 19
-3.5845783 7.9611745 -1.4344424 61
-3.6111047 8.0200882 -1.2361355 27
-3.5949979 7.9843159 -1.0239846 22
-3.6700697 8.1510468 -0.8339839 9
-5.0302143 11.171862 -0.856749 4
-5.5480256 12.321896 -0.63018066 11
-5.1886563 11.523754 0 11
-5.0091233 11.12502 0.28326455 10
-2.0280137 4.5041199 -1.6690899 19
-5.2921138 11.753529 0.6011126 13
-2.0912988 4.6446729 -1.5894598 50
-5.0547876 11.226438 0.86093444 10
-2.3079455 5.1258349 -1.6119273 14
-2.531599 5.6225581 -1.6142247 15
-5.7260623 12.717306 1.6309882 8
-2.6782396 5.9482403 -1.5456694 22
-5.2715139 11.707776 1.8045186 9
-3.1339946 6.9604497 -1.622543 84
-7.8773208 17.495148 3.1522715 6
-3.3487289 7.4373641 -1.5367625 26
-4.94805 10.989378 2.2707055 4
-3.5462255 7.9351182 -1.4279577 61
-3.5070755 7.8475156 -1.2080226 15
-3.6723766 8.2173967 -1.0525577 27
-3.4961665 7.8231049 -0.79942805 2
-3.9684236 8.8798389 -0.68012559 4
-4.4881473 10.042786 -0.51297671 8
-6.8095126 15.237126 -0.38748103 14
-5.1295233 11.477943 0 11
-4.9943495 11.175475 0.28419298 11
-2.0084689 4.4941974 -1.6633278 19
-5.2372589 11.719015 0.59859711 19
-2.14609 4.8021421 -1.6412899 18
-6.3966923 14.31339 1.0962927 4
-2.2638133 5.0655622 -1.5909789 16
-5.4144678 12.115541 1.2380638 5
-2.4858882 5.5624824 -1.5949776 19
-4.8929901 10.948671 1.4024036 6
-2.6751153 5.9859014 -1.5535085 23
-5.2290983 11.700754 1.8011783 16
-3.0147688 6.7459183 -1.5705651 30
-4.9819474 11.147724 2.0060794 4
-3.4538448 7.728405 -1.5949003 46
-6.3696055 14.25278 2.9413264 7
-3.4746747 7.8373537 -1.4085032 26
-3.5271242 7.955657 -1.2230532 28
-3.5706899 8.0539217 -1.0302567 10
-3.4818192 7.8534684 -0.80147165 6
-3.9582341 8.9280529 -0.68291593 6
-4.4437575 10.023183 -0.51129973 6
-6.6840482 15.076303 -0.38288528 17
-4.9827738 11.238969 0 13
-5.0495033 11.389482 0.28925297 11
-2.0028059 4.5174584 -1.6697301 22
-5.2291884 11.794773 0.60167158 6
-2.125643 4.7945256 -1.636524 17
-5.2884269 11.92839 0.91241467 8
-2.2176065 5.001955 -1.568928 16
-6.3575082 14.339771 1.4634197 7
-2.4348705 5.4920082 -1.5726916 21
-4.8781981 11.003092 1.4075143 11
-2.63447 5.9422178 -1.540136 30
-5.227272 11.79045 1.8125906 17
-2.5871966 5.8355894 -1.3568319 3
-4.9448524 11.153434 2.0044582 8
-3.4516118 7.7853341 -1.6045282 16
-5.3379302 12.040048 2.4814086 8
-3.487365 7.9331441 -1.4237425 39
-3.431977 7.8071465 -1.1985588 27
-3.4678292 7.8887033 -1.0077236 25
-3.4515216 7.8516068 -0.8001712 9
-3.9237447 8.9258318 -0.68179977 6
-5.8626308 13.336457 -0.67937273 6
-4.9780278 11.324141 0 13
-4.995193 11.363189 0.28818524 15
-1.9756423 4.4942398 -1.6588461 19
-5.3022561 12.061703 0.61443543 6
-2.1067293 4.7924399 -1.6335452 20
-6.634316 15.091906 1.1527956 13
-2.1933718 4.9895363 -1.5628638 20
-6.3204441 14.377903 1.4652776 7
-2.4246135 5.5155706 -1.57725 17
-7.6431341 17.386789 2.2210338 10
-2.5860295 5.8827643 -1.5226135 23
-7.6522098 17.407436 2.6724021 19
-7.5441766 17.16168 3.0799658 19
-3.4461207 7.8393207 -1.6134155 48
-5.4804153 12.466985 2.5658379 2
-3.480792 7.9748058 -1.4295789 78
-3.540664 8.1119776 -1.2439293 100
-3.4821262 7.9778624 -1.0179448 15
-3.4309518 7.8606172 -0.8001712 6
-3.9650073 9.0841866 -0.69310033 6
-4.4786592 10.261008 -0.52210706 6
-6.0516095 13.864779 -0.35122579 3
-4.9331589 11.302308 0 10
-5.0102148 11.478849 0.29078487 15
-1.9562885 4.4820318 -1.6524439 21
-5.1260028 11.744131 0.59757227 9
-2.09952 4.8101883 -1.6377155 18
-2.1810694 4.997025 -1.5634152 14
-6.3337579 14.511206 1.4771676 7
-2.4109375 5.5236735 -1.5777565 21
-7.5944037 17.399458 2.2201045 3
-2.5822954 5.9162693 -1.5295303 27
-7.6089807 17.432856 2.6732371 14
-2.7413604 6.2807021 -1.4566295 20
-7.4739523 17.123493 3.0695899 6
-3.3925612 7.7726612 -1.5978626 52
-5.108891 11.704926 2.4062366 2
-3.4437869 7.954309 -1.4240667 39
-3.4693685 8.0133963 -1.2272285 18
-4.3522849 10.052719 -1.0219972 7
-4.4481964 10.274251 -0.52210706 6
-6.0025043 13.864324 -0.35076156 9
-4.7192268 10.900265 0 10
-1.9279263 4.4530401 -1.6396391 22
-5.0577993 11.682284 0.59365922 11
-2.0859983 4.8181486 -1.6383113 18
-5.3252296 12.299984 0.93724799 6
-2.1853299 5.0475802 -1.577197 18
-5.1798601 11.964215 1.2163271 5
-2.3868518 5.5130467 -1.5726916 21
-4.9919314 11.530147 1.4693065 7
-2.5693705 5.9346204 -1.532297 22
-5.2406425 12.104609 1.8537859 2
-2.68152 6.1936584 -1.4345907 8
-3.2906175 7.6005249 -1.560462 26
-5.0733604 11.718228 2.4058664 5
-3.4217293 7.9681177 -1.4247152 34
-3.4666786 8.0727901 -1.2347438 48
-3.6056008 8.3962955 -1.0685865 10
-3.8855608 9.048233 -0.91870129 2
-5.3691859 12.503123 -0.63455951 8
-5.0082865 11.662704 -0.29468429 9
-4.6245222 10.769039 0 10
-4.8907323 11.388958 0.28776747 15
-1.9274161 4.488338 -1.6505231 22
-5.0310006 11.715598 0.5945909 9
-2.044574 4.7611613 -1.6168643 22
-2.1680689 5.0487418 -1.5755432 22
-7.3090963 17.020557 1.7281617 3
-2.3643773 5.5058813 -1.5686394 21
-4.9420242 11.5084 1.4646604 7
-2.5870757 6.0244751 -1.5535085 31
-5.2734776 12.28025 1.8782803 7
-7.4461946 17.339815 3.1003928 33
-3.3463807 7.792655 -1.5978626 100
-5.0455513 11.749482 2.4091992 8
-3.4806967 8.1682787 -1.4587605 31
-3.4355786 8.0623989 -1.2316821 57
-3.4606557 8.1212482 -1.0323474 7
-5.0134039 11.765139 -0.89427799 8
-3.9049401 9.163867 -0.46452996 7
-6.3991137 15.017035 -0.37898588 14
-4.6163812 10.833431 0 10
-1.8433464 4.3258486 -1.7114688 20
-6.0832334 14.275747 0.36027798 5
-1.9460698 4.5669136 -1.677413 19
-5.0053096 11.746143 0.59542942 4
-2.0133061 4.7246995 -1.6025661 25
-7.2221165 16.948406 1.2882625 11
-2.181092 5.1184487 -1.595389 18
-2.3429232 5.4982243 -1.5645875 19
-4.9005194 11.500229 1.4618727 8
-2.5183623 5.9099331 -1.5221524 31
-5.2383838 12.293108 1.8780019 10
-5.0705686 11.899289 2.1250758 6
-3.2267537 7.5723419 -1.5508341 46
-4.9957666 11.723749 2.4010525 4
-3.432631 8.1222162 -1.4487091 34
-3.4116435 8.0725565 -1.2316821 57
-3.5440347 8.3858175 -1.0646373 20
-4.1442375 9.8060045 -0.99320066 10
-3.8645136 9.1441278 -0.46294615 1
-7.6575065 18.119024 -0.45669562 5
-4.5328341 10.725492 0 5
-1.9369376 4.5831394 -1.6812544 22
-5.6105056 13.275455 0.67210573 5
-2.0282655 4.7992373 -1.6258005 16
-2.175626 5.1479187 -1.6025556 16
-7.0512509 16.684515 1.6898903 19
-2.3070176 5.4588141 -1.5514184 25
-4.8787513 11.543994 1.4655896 12
-2.5788493 6.1020169 -1.5696476 28
-7.3120961 17.301722 2.6398356 18
-2.9327531 6.9394164 -1.601336 39
-5.0490713 11.947002 2.1309123 6
-3.3014421 7.8118 -1.5978626 16
-4.973969 11.769297 2.4073477 6
-3.4040484 8.1256781 -1.4474121 23
-3.5630419 8.5052052 -1.29598 31
-3.5744724 8.5324907 -1.0818276 25
-3.5771148 8.5387983 -0.86370927 2
-4.0865216 9.7547836 -0.7395581 8
-6.9536343 16.598763 -0.83924711 4
-1.8205197 4.345695 -1.714889 16
-4.7258143 11.280816 0.28396088 11
-1.9261909 4.597939 -1.6844555 19
-2.011704 4.8020635 -1.624609 20
-7.2356334 17.271912 1.3094685 22
-2.1809859 5.2061505 -1.6185427 16
-7.057281 16.846174 1.7040099 19
-2.3107901 5.5160012 -1.5656004 21
-7.2786608 17.37462 2.2029142 14
-2.5589159 6.1082931 -1.5691864 17
-5.1042719 12.184218 1.8565694 10
-2.8285468 6.7519193 -1.5560112 66
-7.1169319 16.988564 3.0261416 13
-3.2730887 7.8130689 -1.5960113 26
-4.9278593 11.76311 2.402904 5
-3.4283047 8.2481413 -1.467515 33
-3.4085281 8.2005606 -1.2481045 94
-3.5094576 8.4433861 -1.0692834 22
-3.4974594 8.4145203 -0.85014707 9
-4.0561991 9.75879 -0.73900008 9
-4.7318649 11.384371 -0.57493275 10
-4.8984237 11.785093 -0.29630902 4
-4.9235401 11.84552 0 23
-1.8098184 4.3542328 -1.716257 15
-4.7633581 11.460139 0.28813884 15
-1.9169785 4.6120491 -1.6876568 19
-4.8407493 11.646335 0.58816242 6
-1.9931551 4.7953219 -1.6204387 20
-6.6505737 16.000582 1.2116699 14
-2.1708651 5.2228732 -1.6218503 20
-6.9819255 16.797779 1.6971358 16
-2.293148 5.5170736 -1.5640808 19
-7.2552681 17.455414 2.2105803 14
-2.5642548 6.1693277 -1.58302 21
-4.9037499 11.797907 1.7956115 9
-2.7991669 6.7345018 -1.5501897 84
-7.0626411 16.991974 3.0232236 13
-3.2693598 7.8657365 -1.6048985 34
-6.9249482 16.660698 3.3993926 27
-3.4164817 8.2808056 -1.4717301 27
-3.4686239 8.4071865 -1.2781658 21
-3.4790041 8.4323463 -1.066728 10
-3.5027568 8.4899178 -0.85683525 9
-4.0382433 9.7878199 -0.74039519 9
-4.3751612 10.604435 -0.53496408 2
-4.8805137 11.829299 -0.29709819 9
-5.0854926 12.326124 0 18
-4.6486893 11.267407 0.28298602 10
-1.9114 4.6328163 -1.6934189 21
-4.8330975 11.714374 0.5909574 11
-1.9623889 4.756402 -1.605545 21
-6.612462 16.027164 1.2123675 14
-2.171114 5.2623062 -1.6323246 20
-6.9645014 16.88043 1.7036382 13
-2.285336 5.5391555 -1.5686394 25
-7.1996903 17.450478 2.2075603 14
-2.5889158 6.2749662 -1.6083816 25
-2.7233272 6.6007504 -1.5177555 60
-3.2637458 7.9106069 -1.6123044 30
-6.9899936 16.942219 3.4530869 21
-3.3956802 8.304285 -1.4739997 18
-3.4616864 8.4657059 -1.2854028 19
-3.460768 8.46346 -1.0692834 10
-4.3380461 10.608882 -0.53449833 9
-6.0428095 14.777956 -0.37067643 9
-4.9884591 12.199495 0 18
-4.6276493 11.31712 0.28386804 11
-1.8975542 4.640552 -1.6940591 21
-4.8250084 11.799769 0.59449774 16
-1.9683931 4.8137918 -1.6228218 16
-6.5567946 16.034929 1.211391 9
-2.1625764 5.2886753 -1.6383885 18
-6.96872 17.042311 1.7177578 20
-2.2869637 5.5928702 -1.5818086 27
-7.1252875 17.425203 2.2015204 17
-2.5728736 6.2920756 -1.6106873 28
-7.0613003 17.268719 2.6220214 27
-2.6959143 6.592977 -1.5140132 38
-7.2888365 17.825169 3.1639442 3
-2.9145451 7.1276479 -1.4508519 7
-7.0445995 17.227877 3.5067809 19
-3.3598673 8.2826462 -1.4684877 24
-3.4253771 8.4441385 -1.280671 30
-3.4430954 8.4878178 -1.0711417 15
-3.4785178 8.57514 -0.86333776 6
-3.7116044 9.1497374 -0.6904496 1
-4.6613684 11.491068 -0.57828671 2
-5.9917502 14.770686 -0.37007296 13
-4.9769287 12.268977 0 12
-1.7668631 4.355619 -1.7107848 16
-6.9943838 17.242348 0.43199936 7
-1.8909988 4.6616344 -1.6998212 22
-4.7762694 11.774319 0.59254122 9
-1.9628379 4.8387303 -1.629375 18
-6.5614924 16.175198 1.2205988 15
-2.1535816 5.3089461 -1.6427988 20
-6.9705091 17.183493 1.7300196 23
-2.2444277 5.532897 -1.5630679 23
-7.0594282 17.402695 2.1961775 14
-2.5860188 6.3749771 -1.6300541 26
-6.9185028 17.055288 2.5866714 54
-2.8598666 7.0500588 -1.6171373 42
-6.8161759 16.803036 2.9791269 12
-2.9094067 7.172184 -1.458258 24
-6.9994202 17.254765 3.5082619 14
-3.3566511 8.3499241 -1.4785393 31
-3.3951406 8.4456701 -1.2792792 21
-3.3852961 8.4211807 -1.0613852 10
-3.4916713 8.6857967 -0.87337005 9
-4.1791973 10.39607 -0.78350472 7
-4.551476 11.322142 -0.56906319 10
-4.1793242 10.396386 -0.26014659 2
-7.7663579 19.319405 0 15
-1.7573779 4.3716106 -1.714889 15
-1.8834127 4.685132 -1.7062236 19
-4.7228646 11.748484 0.59049159 8
-1.9682792 4.8962436 -1.6466517 16
-4.7008529 11.693728 0.88130331 11
-2.1290054 5.2960625 -1.6367347 22
-6.8288503 16.987282 1.708097 13
-2.2515721 5.600956 -1.580289 25
-7.0232482 17.470861 2.2019849 7
-2.5166202 6.2602835 -1.5986981 24
-6.7939744 16.900526 2.5599504 13
-2.8019514 6.9700665 -1.5967619 79
-6.8222461 16.970854 3.0050662 12
-2.8634033 7.1229329 -1.4464083 5
-6.9964981 17.40432 3.5341835 19
-3.3019011 8.2846823 -1.4652452 31
-3.3876626 8.4998627 -1.2859596 36
-3.3529377 8.4127359 -1.0590621 10
-4.108777 10.309185 -1.0353737 10
-3.8794568 9.7338057 -0.73272198 1
-4.1554246 10.426227 -0.52341139 4
-4.1314301 10.366023 -0.25907892 4
-5.0551643 12.683731 0 3
-1.7457894 4.3802977 -1.716257 13
-4.6844091 11.753484 0.29375583 20
-1.873711 4.701261 -1.710065 19
-4.6798453 11.742032 0.58946675 19
-1.9282949 4.8382154 -1.6252047 18
-6.4204559 16.109337 1.2126465 14
-2.1097221 5.2934279 -1.6339784 20
-6.7791505 17.009323 1.7082828 16
-2.2485523 5.6417618 -1.5899125 23
-2.5001941 6.2731476 -1.6000814 27
-6.7782578 17.007084 2.5730324 22
-2.6972392 6.7675462 -1.5485264 100
-6.7937775 17.046022 3.0147934 9
-2.6923559 6.7552934 -1.3701257 1
-3.3222878 8.4039898 -1.4846997 37
-3.5146356 8.8905487 -1.3435771 24
-3.3345451 8.4349966 -1.0606881 10
-3.7131937 9.3928175 -0.94229585 7
-3.7341704 9.4458799 -0.71026039 6
-4.1248255 10.434073 -0.52322507 9
-4.1068788 10.388675 -0.25935745 6
-5.0241389 12.708958 0 9
-1.7342423 4.3869038 -1.7169412 13
-4.611877 11.666108 0.29124907 15
-1.8515205 4.683568 -1.7017419 19
-4.6499772 11.762486 0.5898394 8
-1.9147773 4.8435812 -1.6252047 20
-6.376915 16.130913 1.2129256 14
-2.0963461 5.3028741 -1.6350808 15
-6.7513938 17.078186 1.7132989 16
-2.2619534 5.7217898 -1.6106791 20
-6.8925629 17.435286 2.1924608 24
-2.5434821 6.4339395 -1.6392765 19
-6.8166604 17.243282 2.6058774 31
-2.6848042 6.7914252 -1.5522689 25
-7.513783 19.00671 3.3578405 11
-6.6562476 16.837507 3.4112425 13
-3.2786169 8.3660355 -1.4762696 25
-3.811738 9.7263985 -0.97462225 7
-4.0836453 10.420223 -0.52192074 9
-4.0986547 10.458523 -0.26079649 2
-5.0002761 12.759188 0 12
-1.7184762 4.3850298 -1.7142049 13
-4.7537975 12.130249 0.30248311 20
-1.8182588 4.6396446 -1.6838154 22
-6.617517 16.885895 0.84576875 6
-1.9261738 4.9150109 -1.6472474 20
-4.5753331 11.674862 0.87683886 8
-2.072186 5.28759 -1.6284657 15
-6.6912498 17.074039 1.7108839 16
-2.2576749 5.760901 -1.6197963 20
-2.5222518 6.4360218 -1.6378932 26
-6.9157825 17.646978 2.6637733 19
-2.7074714 6.9086456 -1.5772183 90
-6.6602077 16.994829 2.9989057 12
-6.6227574 16.899267 3.4197595 29
-3.2917023 8.4689722 -1.4928058 25
-3.299063 8.4879103 -1.2798359 7
-3.6119072 9.2928028 -1.1659207 7
-3.6878893 9.4882917 -0.9497273 14
-3.8596768 9.9302711 -0.74499911 14
-4.0306435 10.370138 -0.51884627 2
-4.64819 11.958978 -0.29788736 9
-4.9530301 12.743277 0 12
-1.7041802 4.3845568 -1.7121527 13
-1.8032347 4.6394067 -1.6818947 22
-4.4279904 11.392443 0.56999487 6
-1.9387226 4.9879932 -1.669886 17
-4.5398183 11.680157 0.87628078 10
-2.0469637 5.2664781 -1.6201965 15
-6.6493101 17.107508 1.71237 22
-2.2380722 5.7581673 -1.6172637 20
-6.8611126 17.652439 2.2147617 10
-2.4147286 6.2126727 -1.5793312 24
-6.7394733 17.339483 2.614506 9
-2.7228937 7.0055275 -1.5975935 36
-3.2026811 8.2399359 -1.6656283 44
-6.5328135 16.807783 3.397541 15
-3.2374721 8.4031963 -1.479512 28
-3.5045605 9.0964527 -1.3700202 27
-3.5636106 9.2497234 -1.1591841 10
-3.7570372 9.7517824 -0.73076886 6
-3.9617922 10.283246 -0.51390839 8
-4.6565371 12.086529 -0.30071908 10
-4.5278678 11.752554 0.29240963 15
-1.8105789 4.6995468 -1.7017419 19
-4.3912978 11.398072 0.56962222 10
-1.9163651 4.9741259 -1.6633326 17
-6.4941225 16.856174 1.2631503 10
-2.0140505 5.2276783 -1.6064146 24
-6.6658211 17.301834 1.7298338 40
-2.215414 5.7503386 -1.6132118 18
-6.7308674 17.470669 2.1894407 14
-2.4123776 6.2615781 -1.5899369 24
-6.6239181 17.193071 2.5894549 27
-2.6303599 6.8273735 -1.5551796 36
-6.5572462 17.020018 2.9966359 28
-3.0884838 8.0164824 -1.6185998 94
-6.5486307 16.997656 3.4319794 4
-3.4980419 9.1604681 -1.3780922 19
-3.8417945 10.060668 -1.0047193 20
-3.9298356 10.291224 -0.51372212 8
-4.6349173 12.137651 -0.30164751 10
-7.1504555 18.725197 0 14
-4.4544568 11.665071 0.28990287 31
-1.7986534 4.7102089 -1.7036625 22
-6.493422 17.004595 0.84884328 12
-1.9015968 4.9797907 -1.6633326 16
-6.3380265 16.597654 1.2423629 10
-1.9889274 5.208487 -1.5986967 24
-6.5640135 17.189455 1.7166432 22
-2.1817758 5.7135072 -1.6010557 19
-6.6789961 17.490566 2.1894407 17
-2.4062831 6.301434 -1.5982369 15
-2.6121826 6.840632 -1.5564271 42
-6.5320587 17.105774 3.0083086 18
-2.9595115 7.750196 -1.5630541 14
-6.5451398 17.14003 3.4567897 11
-3.2980449 8.7096262 -1.5300936 27
-3.46263 9.1442699 -1.3741953 28
-3.937495 10.398314 -0.7775057 5
-3.9060359 10.315236 -0.51437426 6
-4.5018778 11.888762 -0.29514849 4
-4.8210974 12.731772 0 12
-4.4480648 11.74665 0.29162043 11
-1.7794549 4.699265 -1.6979005 19
-6.4360089 16.996504 0.84753889 12
-1.8701051 4.9386582 -1.6478431 18
-6.3566556 16.786943 1.255198 10
-2.0056934 5.2967257 -1.6240554 16
-6.5618258 17.328766 1.728719 16
-2.1500542 5.6779604 -1.5894061 19
-6.6301303 17.509148 2.1894407 10
-2.3742054 6.2699084 -1.5885534 24
-2.6325593 6.9521818 -1.580129 36
-6.3703489 16.823105 2.9554574 34
-2.699127 7.1279764 -1.4360398 48
-6.4638457 17.070015 3.4390154 20
-3.4902258 9.3053074 -1.3967413 17
-3.8964026 10.388217 -0.77583152 5
-4.7737832 12.727406 -0.63390732 11
-4.7761617 12.733747 0 12
-4.3809476 11.680065 0.28962433 19
-1.7713381 4.7225728 -1.7043028 19
-1.8686621 4.982049 -1.6603539 16
-1.991745 5.3102007 -1.6262604 14
-6.5227423 17.390314 1.7328063 13
-2.1444376 5.7172947 -1.5985231 25
-6.4767294 17.267639 2.1566863 13
-2.3408282 6.2408929 -1.5793312 24
-6.2633486 16.698742 2.5065076 17
-2.5942183 6.9164572 -1.5701493 66
-6.2523193 16.669338 2.9249787 12
-2.6636074 7.1014557 -1.429004 3
-6.3473783 16.922775 3.4053175 20
-3.3164697 8.9177198 -1.5631661 21
-3.4552491 9.2908859 -1.3931228 24
-3.5036731 9.4210939 -1.1754452 5
-3.934588 10.579789 -0.52639276 6
-6.3502851 17.075405 0 22
-4.2653723 11.469242 0.28410015 7
-1.7733324 4.7683477 -1.7190282 14
-6.3266778 17.011927 0.84642088 36
-1.8653886 5.0158796 -1.669886 17
-6.3751526 17.142271 1.2789153 21
-1.9802575 5.3247528 -1.6290169 18
-6.5282903 17.554047 1.7472975 6
-2.1628571 5.8157482 -1.6243548 24
-6.3966269 17.200014 2.1460006 13
-2.3308511 6.2674708 -1.5844034 24
-6.4645262 17.382589 2.6064341 27
-2.5537522 6.8668337 -1.5572587 96
-6.2972336 16.932753 2.9681027 40
-6.4932866 17.459925 3.5097435 33
-3.3434446 9.0676727 -1.5878085 49
-3.4889021 9.4621639 -1.4173388 4
-4.0246811 10.915237 -0.81349999 7
-3.9105597 10.605731 -0.52713811 9
-4.45468 12.081427 -0.29895508 7
-6.3067317 17.10433 0 22
-4.2526975 11.533634 0.28539994 18
-1.7639437 4.7839475 -1.7228696 14
-6.255651 16.965796 0.84325331 18
-1.8513752 5.0210686 -1.669886 20
-6.2844667 17.043945 1.2702653 26
-1.9640509 5.3266535 -1.6279143 18
-6.49716 17.620787 1.7521279 10
-2.1084559 5.7182903 -1.5954841 25
-6.3705645 17.277449 2.153434 33
-2.3247867 6.3049955 -1.5922424 24
-2.5291533 6.8592534 -1.5539322 72
-6.1277142 16.61882 2.9100635 6
-2.959115 8.025342 -1.6115639 12
-6.5091014 17.653172 3.5449224 12
-3.2398036 8.8723583 -1.5518177 100
-3.4299495 9.3930826 -1.4053701 14
-4.8338914 13.237845 -1.3147925 3
-5.8035011 15.893167 -0.78903019 4
-4.3426366 11.892519 -0.29394153 4
-4.6236982 12.662221 0 9
-4.2075295 11.522522 0.28479648 15
-1.7476068 4.7859054 -1.7215891 14
-6.3695278 17.443258 0.86598593 12
-1.855239 5.0806613 -1.6877584 16
-6.2466335 17.106707 1.2734742 16
-1.959178 5.3653035 -1.6378373 15
-2.1157007 5.7939487 -1.6147312 27
-6.1643138 16.881271 2.1016309 13
-2.2822728 6.250114 -1.5765644 25
-6.0450153 16.554565 2.8954725 12
-2.9756868 8.1490622 -1.6345228 100
-6.6902399 18.321545 3.6748991 18
-3.2815154 9.0650854 -1.5839176 28
-3.7029073 10.229168 -1.0149374 7
-4.0650978 11.229709 -0.83512449 6
-4.8029823 13.268091 -0.65803754 6
-4.3345871 11.974165 -0.29565912 9
-4.6141858 12.746547 0 12
-4.1855407 11.562428 0.28549278 15
-1.731009 4.7818594 -1.7183878 13
-6.2038236 17.137873 0.84996128 12
-1.833244 5.0642805 -1.6806093 15
-6.1682734 17.039667 1.2671961 10
-1.9533472 5.3960619 -1.6455551 14
-6.4656839 17.861254 1.7721925 17
-2.1041207 5.8125691 -1.6182767 27
-6.1408081 16.963795 2.1097615 16
-2.2508976 6.2180357 -1.5668809 25
-6.2627053 17.300531 2.5858366 13
-2.4444563 6.7527361 -1.5264878 9
-5.9705443 16.493446 2.8818545 12
-2.9609442 8.1795177 -1.6389664 51
-6.36409 17.580603 3.5227041 23
-3.2495241 9.0556374 -1.5806751 31
-3.4162323 9.5202131 -1.4215142 11
-3.3862002 9.4365206 -1.1724253 7
-4.0930247 11.406269 -0.84740168 14
-4.7659144 13.28145 -0.65803754 12
-4.3045106 11.99563 -0.29589123 9
-4.5495281 12.678434 0 12
-4.1714725 11.624884 0.2867462 15
-1.7195696 4.7920241 -1.7203087 13
-1.8165164 5.0621915 -1.6782265 15
-6.085628 16.959173 1.2599413 21
-1.9402201 5.4069238 -1.6472089 14
-6.3841729 17.791145 1.7634606 14
-2.0872285 5.8166008 -1.6177703 24
-6.0853648 16.958439 2.1069739 22
-2.2493012 6.2682586 -1.5779477 24
-6.3294282 17.638586 2.6337121 27
-5.9417963 16.558348 2.8902848 12
-2.8504679 7.9435644 -1.5900862 30
-6.2990422 17.553905 3.5138166 28
-3.254097 9.158783 -1.5968872 73
-3.4028854 9.5775537 -1.4284729 11
-3.3605297 9.4583426 -1.1738191 2
-3.6574788 10.294117 -1.0192103 2
-4.8720803 13.712661 -1.0176075 7
-4.3029542 12.110833 -0.29839802 16
-4.5036511 12.675703 0 12
-4.1202059 11.59648 0.28572491 11
-1.7019699 4.7902608 -1.7177477 11
-6.517386 18.343437 0.9078179 14
-1.801244 5.0696716 -1.6788222 16
-6.0196309 16.942486 1.2572906 21
-1.9219378 5.409369 -1.6461064 15
-6.3515859 17.876787 1.769963 14
-2.0948563 5.8960547 -1.6380304 20
-5.9801865 16.831469 2.0888543 12
-2.2374177 6.2972994 -1.5834812 27
-6.1247954 17.238476 2.571084 74
-2.4390571 6.8648219 -1.5485264 27
-6.2538128 17.601601 3.0689416 26
-2.8768244 8.0969353 -1.61897 18
-6.2024131 17.456934 3.4904876 19
-3.1636074 8.9835482 -1.5647874 100
-3.3590193 9.5384502 -1.4212359 6
-3.3248632 9.4414587 -1.1705668 5
-3.9377882 11.181953 -0.82898593 7
-4.0950832 11.628617 -0.57493275 7
-4.255167 12.0832 -0.29742315 21
-4.5359936 12.88065 0 12
-6.3073702 17.910746 0.44086587 7
-1.6898437 4.7985702 -1.7190282 11
-6.109777 17.349649 0.85778731 9
-1.8124448 5.1467152 -1.7026521 12
-6.0047626 17.051445 1.2641269 21
-1.917679 5.4455433 -1.6554781 20
-2.067456 5.8708582 -1.6294198 20
-6.2254581 17.678144 2.1917639 28
-2.2327499 6.3402362 -1.5927036 24
-6.0522871 17.186398 2.5607853 26
-2.4777081 7.0358319 -1.5855347 28
-6.0178022 17.088472 2.9765329 12
-2.8711739 8.1531382 -1.628598 63
-6.1738725 17.531658 3.501967 9
-3.1176994 8.9327211 -1.5544116 36
-3.3134451 9.4935646 -1.4131638 19
-3.2906315 9.4282007 -1.1677792 5
-3.8099122 10.916025 -1.0786612 12
-4.260097 12.205879 -0.60288274 2
-4.2391996 12.146005 -0.29867655 14
-4.4690332 12.804515 0 12
-6.2092352 17.79048 0.43747711 23
-1.677062 4.8050585 -1.7196684 13
-6.0718398 17.39682 0.85927796 3
-1.8093909 5.1842027 -1.7133757 13
-5.9485788 17.043655 1.2623131 21
-1.9233718 5.5107765 -1.6736702 22
-6.0587187 17.359226 1.7153426 13
-2.014713 5.7724843 -1.6005491 23
-6.1348314 17.577301 2.1771288 20
-2.2163198 6.3501205 -1.5936258 24
-6.0134101 17.229408 2.5646822 8
-2.4580519 7.0427232 -1.5855347 21
-5.8399959 16.73255 2.9116848 6
-2.7875164 7.9866929 -1.5937895 34
-6.1242461 17.546972 3.5015967 9
-3.0026183 8.690649 -1.5106392 28
-3.2894266 9.5207748 -1.415669 13
-3.6474943 10.557151 -1.0420618 10
-4.1951466 12.142252 -0.29825872 9
-5.9818993 17.313753 0 5
-6.0912881 17.630362 0.43306705 22
-1.6563905 4.7941856 -1.7139063 13
-6.1032777 17.665064 0.87157601 3
-1.8024483 5.216929 -1.7223119 12
-5.9067359 17.096201 1.2648243 21
-1.9204906 5.5585852 -1.6863495 17
-6.0119605 17.400761 1.7175721 23
-1.9965695 5.7787848 -1.6005491 21
-6.0659614 17.557058 2.1722505 10
-2.1855567 6.3257813 -1.5857867 21
-2.4582753 7.1151266 -1.6000886 42
-6.1225314 17.720791 3.0802898 13
-2.7470093 7.9508257 -1.584902 52
-6.9901118 20.23188 4.0329833 3
-3.0764911 8.9908113 -1.5612206 85
-3.2694962 9.5548544 -1.4192874 16
-3.2175407 9.403019 -1.1622039 5
-3.2364202 9.4581928 -0.93263513 2
-4.0286503 11.773425 -0.87014228 8
-5.1728172 15.117166 -0.37095493 6
-5.879344 17.181938 0 16
-4.4387445 12.971894 0.31831285 9
-1.6415436 4.7972865 -1.7132661 13
-6.0993423 17.824865 0.87856352 3
-1.7857237 5.2186422 -1.7211204 10
-5.3101711 15.518572 1.1469359 4
-1.9127016 5.589725 -1.6940674 18
-6.0969772 17.817953 1.7569582 10
-2.0101063 5.874383 -1.6253678 18
-5.3572078 15.656034 1.9350706 11
-2.1705565 6.343287 -1.5885534 24
-6.5236034 19.064735 2.8318946 37
-2.3769827 6.9465513 -1.5605854 100
-6.0724764 17.746351 3.0815871 3
-2.7577648 8.0593586 -1.6048985 42
-6.0373044 17.643564 3.5134466 9
-3.1391749 9.2530079 -1.6053175 79
-3.3628228 9.9122305 -1.4710598 9
-3.1941905 9.4151716 -1.1626686 5
-3.2116492 9.4666328 -0.93263513 2
-3.7600107 11.082979 -0.81838292 1
-4.2118292 12.414755 -0.61136097 30
-6.0865107 17.940554 -0.43984461 14
-5.7013369 16.805216 0 5
-4.4054136 12.985363 0.31835929 13
-1.6265446 4.7943907 -1.7107052 13
-6.0372543 17.795364 0.87632746 19
-1.7689891 5.2142587 -1.7181416 13
-5.2599125 15.504079 1.1448432 4
-1.9054738 5.61656 -1.7006825 16
-5.8686166 17.298288 1.7041956 13
-1.9934783 5.8759613 -1.6243548 20
-5.3353519 15.726442 1.9420398 13
-2.1651976 6.3821201 -1.5968536 24
-6.4507661 19.014229 2.8218739 43
-2.3336492 6.8786464 -1.5439523 48
-2.696877 7.9492941 -1.5815693 34
-6.1672664 18.178587 3.6167612 10
-3.115113 9.277792 -1.6079113 61
-3.2238648 9.6016893 -1.4234626 6
-3.1728134 9.4496422 -1.1656884 7
-3.6756537 10.947259 -1.0773607 15
-3.7219954 11.085279 -0.81768537 7
-4.6719718 13.91461 0 10
-4.3556833 12.972603 0.31770939 13
-1.609664 4.7940884 -1.7087845 13
-5.3695741 15.99229 0.78670096 5
-1.7483441 5.2071214 -1.7139714 12
-5.2067299 15.507288 1.1438667 13
-1.8792509 5.5970039 -1.6929647 18
-1.9676167 5.8601847 -1.6182767 15
-5.2568293 15.6565 1.9313538 8
-2.1420381 6.3796668 -1.594548 27
-2.3630857 7.0380173 -1.5780498 25
-5.9707899 17.782902 3.0819111 13
-2.6800206 7.9819493 -1.5863833 100
-3.1670623 9.5205345 -1.6484416 66
-3.1457872 9.4565802 -1.1654562 2
-3.6054709 10.838439 -1.0656563 10
-3.6771724 11.053981 -0.81461608 5
-4.3266368 13.006342 -0.63921785 8
-5.967319 17.938412 -0.43891618 14
-6.0390005 18.153894 0 6
-6.583931 19.792015 0.48427004 9
-1.5920844 4.7859793 -1.7043028 14
-5.6029973 16.843222 0.82778758 11
-1.7319891 5.2065487 -1.7121841 13
-5.1917472 15.606958 1.1501447 4
-1.8666492 5.611351 -1.6957211 17
-5.2076931 15.654893 1.5392196 8
-1.9579632 5.8858509 -1.6238482 18
-5.2387986 15.748401 1.9408783 5
-2.0959582 6.3006787 -1.5733366 23
-5.8683271 17.640831 2.6128359 23
-2.3415718 7.0390201 -1.5768025 36
-6.0176682 18.089767 3.1321688 10
-2.649657 7.965158 -1.5815693 16
-6.1734333 18.558014 3.6848972 10
-2.9372325 8.912673 -1.5417662 24
-3.2104814 9.7418127 -1.4415551 4
-3.1361518 9.5162687 -1.1717283 2
-3.6150773 10.969509 -1.0775465 10
-3.6675179 11.128634 -0.81935954 1
-4.1721101 12.659758 -0.62160933 5
-4.9396539 14.988775 -0.36640564 13
-5.6990662 17.293118 0 22
-1.5787116 4.7904072 -1.7043028 13
-5.2482796 15.925261 0.78194952 15
-1.718039 5.2131791 -1.71278 13
-5.1437678 15.608133 1.1491681 13
-1.8545808 5.6274981 -1.6990288 16
-5.1845198 15.731791 1.5453504 8
-1.9560516 5.9353991 -1.6360044 22
-2.0807896 6.3139009 -1.575181 23
-2.3108819 7.0120883 -1.5693176 21
-2.6194038 7.9482603 -1.5767554 42
-6.1092763 18.537851 3.6774912 10
-3.1056151 9.5241508 -1.6458476 47
-3.3382723 10.237653 -1.5133684 3
-3.5188472 10.79143 -1.3273703 10
-3.5454116 10.872897 -1.0669569 10
-4.1112714 12.608249 -0.92734259 20
-4.596252 14.095564 -0.34421611 9
-5.6323133 17.272907 0 16
-5.3028903 16.262648 0.39713672 6
-1.5624806 4.7917399 -1.7030224 13
-5.1920328 15.922676 0.78101778 10
-1.7022457 5.220365 -1.7133757 11
-5.120688 15.703879 1.1550276 13
-1.8416613 5.6479182 -1.703439 16
-5.7246385 17.556046 1.722774 3
-1.9463936 5.9691062 -1.6436019 20
-5.7364483 17.592262 2.1638877 20
-2.0549116 6.3019042 -1.5705699 23
-5.9753661 18.324965 2.7088654 19
-2.2967272 7.0434918 -1.5747232 24
-5.7040296 17.492842 3.0228996 12
-2.6023433 7.980741 -1.5815693 30
-6.0741653 18.627956 3.6915629 15
-3.0543025 9.461957 -1.6335264 35
-3.5626817 11.03687 -1.0820054 10
-4.5587049 14.12246 -0.34454107 9
-4.5605474 14.128168 0 10
-5.2662802 16.314466 0.39801875 6
-1.5465088 4.790946 -1.7011017 13
-5.1232815 15.871469 0.77775699 15
-1.6861612 5.223577 -1.71278 11
-5.0906148 15.77027 1.1587946 4
-1.833162 5.6789722 -1.7111567 16
-5.103003 15.808647 1.5498091 11
-1.9286727 5.9748554 -1.6436019 20
-2.045768 6.3376064 -1.5779477 24
-5.9392152 18.399158 2.7172158 10
-2.2728117 7.0409675 -1.5726441 24
-5.6690717 17.562277 3.0319781 19
-2.6028004 8.0632429 -1.5963815 28
-5.9735808 18.505619 3.6637897 7
-2.7312603 8.5375891 -1.4727029 6
-3.8035254 11.88936 -1.4597821 60
-4.1716571 13.040095 -0.6384725 2
-5.558022 17.373703 -0.42350417 13
-4.5204997 14.130534 0 10
-5.14679 16.088242 0.39216959 13
-1.5304976 4.7841496 -1.6972601 11
-5.0920639 15.917175 0.77934086 10
-1.6718991 5.2261543 -1.7121841 11
-5.608592 17.53178 1.2871464 22
-1.8288335 5.716712 -1.7210798 12
-5.0834446 15.890233 1.5564973 11
-1.9124354 5.9780416 -1.6430954 20
-2.0564473 6.428205 -1.5991592 18
-5.8874083 18.403326 2.7155459 15
-2.2352972 6.9872684 -1.5593379 27
-5.6477318 17.654125 3.0452719 13
-2.5343735 7.9221449 -1.5671275 48
-6.1239376 19.142687 3.786731 24
-2.7026405 8.5404816 -1.4717301 6
-3.2613549 10.306048 -1.5192137 6
-3.80811 12.033822 -1.4760431 46
-3.6883111 11.655252 -1.1405272 10
-3.6778479 11.622187 -0.85242409 14
-3.9353802 12.436003 -0.60828644 8
-4.1129341 12.997081 -0.31650242 2
-4.4754844 14.142758 0 3
-4.9870381 15.759295 0.38376731 6
-1.5148895 4.787128 -1.69662 11
-5.0287757 15.891189 0.77729112 15
-1.6537453 5.2259197 -1.7103969 12
-5.5245972 17.458008 1.2804499 22
-1.810866 5.7224288 -1.7210798 11
-1.9018188 6.0098443 -1.6501864 18
-5.4772301 17.308327 2.1230028 9
-2.0333076 6.4253559 -1.5968536 21
-5.8911133 18.616219 2.7442153 20
-2.2027123 6.9606833 -1.5518529 100
-5.5934358 17.675543 3.0459204 26
-2.5806313 8.1549263 -1.6115639 24
-5.8621607 18.524727 3.6608276 15
-3.7519193 11.972378 -1.4672158 97
-3.67838 11.737713 -1.1475871 7
-3.8916779 12.418347 -0.60688895 11
-4.0730381 12.997067 -0.31622389 10
-4.9921918 15.930087 0 4
-4.9065399 15.656773 0.38093558 18
-1.4998164 4.7859154 -1.6946993 11
-4.9802008 15.891824 0.77663898 20
-1.6374334 5.2250514 -1.7086096 12
-5.336813 17.029774 1.2479434 21
-1.79373 5.723794 -1.7199771 10
-4.9712024 15.863111 1.5509239 2
-1.8966016 6.0520568 -1.6603165 15
-5.4348178 17.342508 2.1253254 9
-2.0252514 6.4625793 -1.6046927 25
-5.8450303 18.651497 2.7469988 20
-2.2131028 7.0620127 -1.57306 27
-5.6626825 18.069624 3.1110928 23
-2.5319893 8.0795794 -1.5952705 28
-5.8239279 18.58416 3.6693444 23
-2.6522362 8.5521374 -1.4710816 4
-3.649298 11.767163 -1.4407333 40
-3.7195859 11.993807 -0.87809449 21
-4.0252419 12.979394 -0.63372099 8
-5.2053447 16.784637 -0.4079994 8
-5.6599464 18.2505 0 12
-4.8055716 15.495568 0.37666482 18
-1.4856082 4.7903447 -1.6946993 11
-4.924737 15.879818 0.77533466 9
-1.6190941 5.2207699 -1.7056309 10
-4.7774282 15.404819 1.1278228 17
-1.7761681 5.7272549 -1.7194259 11
-1.8981202 6.1204896 -1.6775377 20
-1.9778194 6.37748 -1.5820979 48
-5.8330712 18.808743 2.7675965 25
-2.193876 7.0741544 -1.5743074 28
-5.5102444 17.767786 3.0562963 6
-2.5330367 8.167778 -1.6111937 28
-5.8467674 18.852905 3.7189651 16
-3.3206213 10.820716 -1.5907487 13
-3.7396669 12.186235 -1.4906782 18
-3.826571 12.469425 -1.2168845 11
-3.7641737 12.266094 -0.89720774 14
-4.001368 13.039026 -0.63605016 20
-4.2639098 13.894556 -0.33743858 8
-4.2726865 13.923156 0 10
-4.724968 15.396978 0.37392592 18
-1.4713893 4.7947311 -1.6946993 11
-4.8693967 15.86762 0.77403033 7
-1.6024773 5.2219 -1.7044394 10
-4.7668219 15.533364 1.1361934 17
-1.756348 5.7233095 -1.7166696 12
-4.9424109 16.105547 1.5717316 11
-1.8776826 6.1186948 -1.6755115 20
-5.2181673 17.004139 2.0800269 12
-1.9897201 6.4837856 -1.6069982 15
-5.5669069 18.140556 2.6668351 4
-2.1878002 7.1292577 -1.5851189 25
-5.3943958 17.578405 3.0209539 6
-2.437294 7.9422688 -1.5652759 92
-5.6535764 18.422981 3.6308327 18
-2.883544 9.4968243 -1.6306083 14
-3.3540955 11.046565 -1.6224802 8
-3.6850212 12.136455 -1.4832445 51
-3.7774034 12.44071 -1.212983 43
-3.7179055 12.244757 -0.89483607 19
-3.7101684 12.219275 -0.59552258 13
-4.2429929 13.97411 -0.33906332 8
-4.2313528 13.935774 0 10
-4.6734495 15.391799 0.37346169 18
-1.4544029 4.7900114 -1.6914982 11
-1.5864205 5.2248058 -1.7038436 10
-4.7282434 15.572261 1.1380072 21
-1.7376816 5.7229772 -1.7150156 11
-4.894598 16.120142 1.5717316 14
-1.8808788 6.194591 -1.6947587 21
-5.0990071 16.793354 2.0523829 21
-1.9942192 6.5678725 -1.6263652 22
-5.0308547 16.568897 2.4335809 15
-2.1552682 7.09828 -1.5768025 42
-5.3347569 17.569786 3.0167389 9
-2.467963 8.1281261 -1.6004548 24
-5.6154442 18.494217 3.6415718 10
-2.8018291 9.3153505 -1.5981842 33
-3.0844347 10.25494 -1.505018 17
-3.6355002 12.087089 -1.4760431 54
-3.6496105 12.134002 -1.1821429 11
-3.7295113 12.399652 -0.90543902 19
-3.6574519 12.160072 -0.59216857 10
-4.2541962 14.144092 -0.34291631 3
-5.4546962 18.135441 0 6
-4.6498418 15.459509 0.37480795 18
-1.4456786 4.8065033 -1.6959798 13
-4.7358131 15.745342 0.76676327 16
-1.5721873 5.2271123 -1.7032479 10
-4.6587286 15.489057 1.1310315 17
-1.7210324 5.7219834 -1.7133619 12
-4.83288 16.068064 1.565415 11
-1.8713433 6.2217274 -1.7008368 21
-5.7313194 19.05514 2.3269632 3
-1.9798212 6.5823884 -1.6286707 26
-5.0216899 16.695808 2.4502819 16
-2.1518922 7.1544795 -1.5880296 28
-5.6724386 18.859377 3.2356014 17
-2.4642253 8.1929054 -1.6119342 38
-5.7232528 19.02832 3.7437756 11
-2.778177 9.3430214 -1.6014266 97
-3.6699831 12.34217 -1.5057777 48
-3.6353817 12.225805 -0.89190626 36
-3.6733291 12.353422 -0.60101944 13
-4.6098032 15.502789 -0.37550429 10
-4.7455745 15.959388 0 17
-5.6247687 18.916122 0.45818114 16
-1.4284121 4.8037562 -1.6934189 13
-4.707396 15.830995 0.77021044 9
-1.5524942 5.221045 -1.6996734 10
-5.6597772 19.033855 1.3885723 12
-1.7014053 5.7218337 -1.7117082 12
-5.1286001 17.247505 1.6787431 13
-1.8523406 6.2294297 -1.7013432 23
-1.9613525 6.5960374 -1.6305153 26
-4.9658303 16.700109 2.448612 16
-2.0948365 7.0449443 -1.5622486 100
-5.6069789 18.856297 3.2320349 21
-2.4087865 8.1007595 -1.5923082 26
-5.6584077 19.029251 3.740443 16
-2.6724772 9.0861568 -1.5560329 73
-3.6254961 12.326326 -1.5025256 33
-3.7366865 12.704362 -1.2354628 5
-3.5579903 12.096813 -0.88172179 6
-3.6411657 12.379601 -0.60176474 11
-4.6959386 15.965724 0 17
-4.6489739 15.806048 0.38251394 18
-1.4141513 4.8079739 -1.6934189 13
-4.7545428 16.164972 0.78576928 20
-1.5326849 5.2109761 -1.6949073 8
-4.7396717 16.11441 1.1745596 13
-1.6817065 5.7176352 -1.7089517 12
-5.6331258 19.152067 1.8624835 11
-1.8371233 6.2460361 -1.7043823 16
-4.6966658 15.968196 1.9464536 11
-1.9456151 6.6148977 -1.6337432 26
-4.952579 16.838276 2.4667041 12
-2.0689542 7.0342383 -1.5585061 69
-5.5743899 18.952372 3.2456529 21
-2.3597815 8.0230227 -1.5756444 44
-5.5752959 18.95545 3.7226682 16
-2.7061157 9.2963371 -1.5907266 97
-2.9426608 10.108942 -1.4796885 3
-3.6204884 12.437488 -1.5148375 42
-3.8792999 13.326585 -1.2949136 12
-3.6853521 12.660315 -0.92204106 2
-3.5937409 12.345602 -0.59962195 10
-4.5567594 15.653866 -0.37852168 10
-4.6619592 16.015259 0 4
-4.596437 15.79017 0.38181761 18
-1.40125 4.8137231 -1.6940591 13
-4.7395391 16.281771 0.79080039 7
-1.5175945 5.2134023 -1.6943116 10
-4.6968865 16.135244 1.1751175 18
-1.6641225 5.7167711 -1.7072979 11
-5.6180282 19.299648 1.8753027 11
-1.819675 6.2511415 -1.7043823 16
-5.6791863 19.509747 2.3762109 12
-1.9325757 6.6389899 -1.6383543 22
-5.4175735 18.611027 2.7241745 15
-2.0766428 7.1339045 -1.5792973 19
-5.4695969 18.789743 3.2151742 14
-2.3736246 8.1541281 -1.6000844 48
-5.4124794 18.593527 3.6486075 10
-2.6959891 9.3588543 -1.6001297 49
-3.5895934 12.460911 -1.5164636 30
-3.8172667 13.251256 -1.2865534 9
-3.6356263 12.620709 -0.9184137 2
-4.4474082 15.438728 -0.74924797 10
-4.6049075 15.985472 -0.38622767 14
-5.131537 17.813612 0 5
-4.5606294 15.831764 0.38251394 6
-1.3867537 4.8139753 -1.6927786 13
-5.3300319 18.502666 0.89794225 10
-1.5009168 5.2102814 -1.6919286 10
-4.6473937 16.132959 1.1740013 13
-1.6449596 5.7103109 -1.7039902 10
-4.6937222 16.293783 1.5819498 9
-1.8081037 6.2766495 -1.7099538 16
-5.5603504 19.302195 2.3490319 12
-1.9167231 6.6537108 -1.6406598 26
-4.7789707 16.589716 2.4263439 15
-2.0615878 7.1565943 -1.5830398 30
-5.4067283 18.768911 3.2090137 14
-2.3655355 8.2117176 -1.6100826 28
-5.9443054 20.635057 4.0459437 12
-2.6130579 9.173213 -1.567057 91
-3.1247528 10.969533 -1.6029959 16
-3.5406291 12.429478 -1.511353 24
-3.8182995 13.404247 -1.3003014 6
-3.8856633 13.64073 -0.99179751 2
-4.3588848 15.301987 -0.74198085 21
-4.5853887 16.097136 -0.38859516 14
-5.0518069 17.73451 0 5
-4.5141783 15.847151 0.38256034 18
-1.3698676 4.8089585 -1.6895775 11
-4.9149656 17.254124 0.83663845 11
-1.4864956 5.2183847 -1.6931202 10
-1.6248475 5.704073 -1.7006825 10
-5.470222 19.203369 1.8628551 18
-1.7915909 6.2894301 -1.7119797 14
-5.3098555 18.640396 2.2665651 10
-1.8985703 6.6649842 -1.6420432 22
-4.8952107 17.184776 2.5112395 12
-2.0644603 7.2473459 -1.6017518 42
-5.3239765 18.68997 3.1928015 14
-2.3153126 8.1279697 -1.5923082 24
-5.3343725 18.726463 3.6686039 10
-2.5970693 9.2146645 -1.5728934 61
-3.0468307 10.810464 -1.5785015 35
-3.4902804 12.383868 -1.5046163 18
-3.8321738 13.596941 -1.3179508 12
-3.8280745 13.582396 -0.9867751 7
-4.3302298 15.364094 -0.74440324 10
-4.5214381 16.042521 -0.3869704 14
-5.0217981 17.817848 0 5
-4.4503837 15.790411 0.38088915 12
-1.3554058 4.8091168 -1.6882969 11
-4.8505082 17.210094 0.83384347 8
-1.4693286 5.2133269 -1.6901414 10
-5.2482448 18.621304 1.3528571 30
-1.6068274 5.7011862 -1.6984775 10
-5.4273829 19.256905 1.8665708 15
-1.7734967 6.2925463 -1.7114732 14
-5.2664061 18.685741 2.2702818 14
-1.886287 6.6927376 -1.6475767 16
-4.8198061 17.10116 2.4970441 12
-2.0006986 7.098681 -1.5676543 72
-5.1802192 18.379942 3.1373565 16
-2.287276 8.1154861 -1.5886052 44
-5.2607341 18.665617 3.6537917 7
-2.4431717 8.7740927 -1.4963725 55
-3.0665145 11.012685 -1.6066145 29
-3.4449661 12.371807 -1.5018286 42
-4.3109431 15.481766 -1.1237768 9
-4.286767 15.394943 -0.74524176 10
-4.4661932 16.03931 -0.38655263 14
-4.3970032 15.790831 0.38056421 6
-1.3392754 4.809701 -1.6870166 11
-4.8001719 17.238718 0.8344956 11
-1.4503835 5.2087207 -1.6871626 10
-5.176878 18.591572 1.3495088 24
-1.5883942 5.7043543 -1.6979262 10
-5.487052 19.705492 1.908372 12
-1.7526826 6.2943583 -1.7104602 16
-5.1762419 18.589289 2.2565761 18
-1.8830026 6.762373 -1.6632546 20
-4.6677747 16.763245 2.44555 8
-2.0051522 7.2010455 -1.5888612 79
-6.5174184 23.405817 3.9917316 10
-2.2881315 8.2173004 -1.6071203 44
-5.2711377 18.930084 3.7023015 13
-2.5564437 9.2874403 -1.5826205 73
-2.9229186 10.618827 -1.5478834 16
-3.4746647 12.623295 -1.5310985 69
-4.1702418 15.150294 -1.4660206 10
-3.7365601 13.574749 -0.98454285 5
-4.2808309 15.552059 -0.75222927 3
-4.4015985 15.990803 -0.38506711 14
-4.9356837 17.931108 0 5
-4.8351259 17.565786 0.42299357 7
-1.3249974 4.8136539 -1.6870166 11
-4.7458162 17.241329 0.83393657 11
-1.4339077 5.2093201 -1.6859711 10
-5.1010375 18.531832 1.3440678 17
-1.5735012 5.7164564 -1.7001313 11
-4.5074124 16.375219 1.5845507 9
-1.7314301 6.2902045 -1.7079278 14
-5.0946989 18.508804 2.2449608 14
-1.8727411 6.8035808 -1.6720159 23
-5.1693769 18.780106 2.737535 20
-1.9920824 7.2371421 -1.5955144 27
-5.083034 18.466425 3.1467595 13
-2.2731266 8.2581635 -1.6137857 38
-6.3285556 22.991346 4.4929008 10
-2.477067 9.1045532 -1.5501964 97
-2.8695633 10.547188 -1.5361928 14
-3.6051197 13.250753 -1.6058996 19
-3.7075713 13.627317 -1.3175794 3
-3.7266479 13.697434 -0.99263459 10
-4.6558304 17.11268 -0.82704228 4
-6.3587708 23.371902 -0.56235117 7
-4.7774515 17.559702 0 11
-4.8533263 17.838585 0.42921406 15
-1.31071 4.817564 -1.6870166 13
-4.71667 17.336298 0.83784956 12
-1.4204508 5.2209201 -1.6883541 10
-5.0308433 18.491055 1.3400218 29
-1.553001 5.7081141 -1.6962724 10
-1.7097124 6.284112 -1.7048887 11
-5.046021 18.546841 2.2477484 25
-1.8586782 6.8316417 -1.6775494 24
-5.1292343 18.852694 2.7458856 20
-1.9798461 7.276999 -1.6029993 42
-5.1748476 19.020348 3.2385199 3
-2.2501633 8.2705603 -1.6148967 26
-6.3635097 23.389318 4.5669618 10
-2.567137 9.5340662 -1.622178 47
-2.8275244 10.501116 -1.5283991 68
-3.5637052 13.23521 -1.6028796 35
-3.7360857 13.875413 -1.3406166 12
-3.7089331 13.774571 -0.99751759 10
-4.6084194 17.115164 -0.82657641 13
-5.0452266 18.737419 -0.45052159 5
-4.6867471 17.406065 0 5
-4.857038 18.038507 0.43371695 7
-1.2941527 4.8063416 -1.6818947 11
-1.4042965 5.2154036 -1.6853755 10
-5.0643797 18.808552 1.362065 24
-1.5360535 5.7047348 -1.6940674 10
-5.0858603 18.888329 1.8249552 18
-1.6892315 6.2736206 -1.7008368 9
-5.0955815 18.924433 2.2918856 15
-1.8428117 6.8440008 -1.6793939 24
-5.0592656 18.789558 2.7347517 15
-1.9796089 7.3520508 -1.6183847 79
-5.082962 18.877563 3.2119317 14
-2.1886458 8.1283913 -1.5860128 52
-5.0661306 18.815054 3.671196 13
-2.519551 9.4691677 -1.6098568 91
-2.8467684 10.69894 -1.5559554 68
-3.5601709 13.380104 -1.6191409 16
-3.6759505 13.815235 -1.3337425 12
-4.5376 17.053551 -1.233992 10
-4.4779873 16.82951 -0.81213552 12
-4.7181444 17.732086 -0.42601094 13
-4.6139917 17.340652 0 16
-4.7880659 17.994873 0.43232432 15
-1.2798849 4.8101602 -1.6818947 11
-5.0137839 18.843184 0.90930855 7
-1.3883233 5.2177019 -1.6847796 10
-1.5181301 5.7055511 -1.6929647 10
-5.0420785 18.949522 1.8294139 10
-1.6686178 6.2711263 -1.6988107 9
-5.0077357 18.82045 2.2774832 15
-1.8194926 6.8381548 -1.6766272 28
-1.9940021 7.4940095 -1.648324 28
-5.0203261 18.867769 3.2077169 14
-2.1710865 8.1595411 -1.5908269 38
-5.0112882 18.833803 3.6719365 10
-2.5270743 9.6121178 -1.6328779 73
-2.7787557 10.569427 -1.5359144 35
-3.1123476 11.838296 -1.4314413 5
-4.1318812 15.716249 -1.136333 3
-4.4143214 16.790554 -0.80962002 17
-5.4133601 20.590553 -0.49429715 5
-4.5706606 17.385216 0 5
-4.6919518 17.846563 0.42842487 22
-1.2646447 4.8102722 -1.6806142 13
-6.0388327 22.969633 1.1075677 6
-1.3718662 5.2181053 -1.6835883 10
-4.8354931 18.392546 1.3298374 5
-1.4987518 5.7007341 -1.6902084 10
-5.2096343 19.815649 1.9115304 12
-1.6450855 6.2573371 -1.6937456 11
-4.9205604 18.716112 2.2630804 18
-1.8165157 6.9093986 -1.6927663 21
-4.9532151 18.840321 2.7378135 20
-1.9667854 7.4809728 -1.6441659 42
-4.7987318 18.252718 3.1007173 6
-2.1658587 8.2381783 -1.6048985 28
-6.2372136 23.724207 4.621767 11
-2.473242 9.5221548 -1.6163416 24
-2.7035704 10.408936 -1.51142 40
