# .PCD v0.7 - Point Cloud Data file format
VERSION 0.7
FIELDS x y z intensity
SIZE 4 4 4 4
TYPE F F F F
COUNT 1 1 1 1
WIDTH 1409
HEIGHT 1
VIEWPOINT 0 0 0 1 0 0 0
POINTS 1409
DATA ascii
3.6781101 -12.768201 1.8674247 17
2.1168215 -7.34834 -1.6254537 25
3.6968062 -12.833103 2.1941392 13
2.3415949 -8.1286192 -1.5937895 34
3.7702723 -13.088133 2.5662081 9
2.6530707 -9.3013525 -1.5891054 30
3.2073538 -11.244604 -1.6433561 35
3.2894211 -11.532323 -1.4024036 16
2.7236807 -9.5489035 -0.69435596 6
3.1158957 -10.923963 -0.52974677 6
3.7277608 -13.06909 -0.31552759 5
3.7068217 -12.99568 0 12
3.7189856 -13.038324 0.31478482 13
4.3088794 -15.106422 0.73257107 8
1.5061227 -5.2802882 -1.7133757 10
3.6195347 -12.689662 0.92273861 3
1.625257 -5.6979594 -1.6990288 12
3.5870128 -12.575644 1.2200428 15
1.7555758 -6.1548414 -1.6755115 13
4.9278655 -17.276516 2.100934 13
1.875808 -6.5763617 -1.6203706 21
3.6185949 -12.686367 1.8540642 10
2.0916741 -7.3331628 -1.6208798 100
3.678355 -12.895879 2.203218 15
2.3025162 -8.0723505 -1.5815693 38
3.7165878 -13.029919 2.5528774 5
2.6420674 -9.3680668 -1.5991569 28
3.2304235 -11.454221 -1.6725825 14
3.2799923 -11.629979 -1.4130894 16
3.633466 -12.883302 -1.2488393 43
2.6915452 -9.5435019 -0.69337934 6
3.0840116 -10.935083 -0.52983993 9
3.0626509 -10.859344 -0.26195705 8
3.6606452 -12.979672 0 6
3.6645436 -12.993495 0.31343859 13
3.6794474 -13.04634 0.63213718 7
1.490967 -5.286572 -1.7139714 10
3.5688696 -12.654261 0.91939032 12
1.6146054 -5.7249608 -1.705644 15
3.5680618 -12.651396 1.2263595 43
1.7562124 -6.2270613 -1.6937456 14
4.0284109 -14.28367 1.7355238 9
1.8525891 -6.5687876 -1.6171428 25
3.6002905 -12.765671 1.8640847 17
2.1309733 -7.5558634 -1.6686993 24
3.6363249 -12.893439 2.2009482 22
2.2780206 -8.0772543 -1.5811989 22
4.0049419 -14.200457 2.7798738 9
2.6158512 -9.381568 -1.6001297 30
3.1767428 -11.393167 -1.6622837 52
3.2886879 -11.79465 -1.431906 11
2.8940442 -10.379288 -1.0052766 10
3.0373991 -10.89342 -0.26256052 10
3.6253417 -13.002035 0 12
4.1715908 -14.96112 0.36060295 11
3.6455522 -13.074519 0.63297564 5
1.4768137 -5.2964892 -1.7157586 8
3.6465187 -13.077985 0.94938558 12
1.5955471 -5.7223182 -1.703439 16
3.5075111 -12.579444 1.2183707 14
1.7465632 -6.2639275 -1.7023562 14
1.8168879 -6.5161414 -1.6028481 28
3.5783572 -12.833529 1.872435 7
2.074393 -7.4396663 -1.6416708 100
3.6886947 -13.229246 2.2563934 9
2.2413766 -8.0385408 -1.5723118 16
3.9348142 -14.111937 2.7602477 13
2.5891173 -9.3869343 -1.5998054 28
3.1033118 -11.251164 -1.6402943 37
3.2689419 -11.851662 -1.4377134 11
2.869813 -10.404606 -1.0069486 7
3.0969994 -11.228278 -0.81447661 7
3.0571012 -11.083626 -0.53617525 24
2.9958019 -10.861383 -0.26158568 8
3.5773187 -12.969692 0 9
3.5869877 -13.004748 0.31320649 9
3.6578972 -13.261832 0.64154702 1
1.4645553 -5.3097954 -1.7187375 8
3.6094525 -13.086194 0.94924611 9
1.57496 -5.7100716 -1.6984775 22
3.6026216 -13.061429 1.2640736 7
1.7259772 -6.2575898 -1.6993172 16
4.1024189 -14.873462 1.804285 7
1.7857474 -6.4742889 -1.5913202 27
3.5351319 -12.816743 1.8685381 10
2.0203185 -7.3247347 -1.6150582 16
3.5772219 -12.969341 2.2103512 13
2.2210097 -8.0523472 -1.5737928 24
2.5981114 -9.5297613 -1.6228265 24
3.1095078 -11.405542 -1.6614486 100
3.2112963 -11.778898 -1.4277245 24
3.1772974 -11.654192 -1.126965 10
3.8434961 -14.09778 -1.0217929 5
3.0100143 -11.040605 -0.53365976 22
2.9693484 -10.891444 -0.26209632 8
3.5451348 -13.003404 0 9
3.5473354 -13.011475 0.31311366 13
3.9890051 -14.631501 0.70722967 12
1.4503012 -5.319643 -1.7205247 10
1.5585172 -5.7165747 -1.6990288 20
3.4774277 -12.755057 1.2334193 21
1.6880647 -6.1917496 -1.68007 22
3.832551 -14.057634 1.7039309 40
1.8371712 -6.7386661 -1.6549546 23
3.4970894 -12.827175 1.8685381 12
2.0273929 -7.4363914 -1.6383443 79
3.5008318 -12.840902 2.1866817 20
2.2183044 -8.1366463 -1.5889754 44
3.7733405 -13.840452 2.7028503 13
2.3048356 -8.5480299 -1.4545454 5
2.8358274 -10.517339 -1.5309043 4
3.4085224 -12.641315 -1.5310985 27
3.006309 -11.149611 -0.8075009 9
2.9880142 -11.08176 -0.53524363 6
2.9259095 -10.85143 -0.26093578 8
4.1372604 -15.344014 0 11
3.504741 -12.998164 0.31255659 9
3.6194236 -13.423492 0.64834815 1
1.4324584 -5.3126121 -1.7169502 12
3.4976649 -12.971922 0.93948019 15
1.5515566 -5.7543163 -1.7089517 15
3.4599407 -12.832012 1.2399217 17
1.6556568 -6.1403966 -1.664875 27
3.7720773 -13.989645 1.6944064 15
1.8609046 -6.9016066 -1.6936885 17
3.4643495 -12.848364 1.8702083 12
2.0315745 -7.5345764 -1.6587195 24
3.4670153 -12.85825 2.1879785 18
2.2078543 -8.1883526 -1.5978626 26
3.6696944 -13.609934 2.6558218 18
2.8608668 -10.744376 -1.5626357 3
3.3841262 -12.709549 -1.5380676 43
3.109623 -11.678614 -1.1275223 7
2.9738343 -11.168641 -0.80819851 7
4.2989545 -16.145311 -0.77915454 3
2.8897471 -10.852839 -0.26075009 8
3.4462974 -12.943041 0 12
3.4566872 -12.98206 0.3119067 13
3.5705533 -13.4097 0.64713699 1
1.4142879 -5.3115516 -1.7151629 15
3.4512498 -12.961639 0.9379456 21
1.5349557 -5.7647362 -1.7106055 15
3.3463414 -12.567642 1.2133546 45
1.628891 -6.1175227 -1.6572775 24
3.7005098 -13.89777 1.6818622 6
1.8432199 -6.9224639 -1.6973774 17
3.4591312 -12.99124 1.8894141 7
1.9696393 -7.3972492 -1.627117 54
3.4093387 -12.804237 2.1769545 15
2.1998196 -8.2617226 -1.6108234 28
3.6188293 -13.591007 2.6498969 3
3.3991961 -12.911049 -1.5612978 28
3.0430279 -11.558228 -1.1150749 7
4.3644233 -16.577238 -1.1986952 3
5.6032987 -21.282816 -0.51096249 12
3.4091206 -12.948745 0 3
3.4311104 -13.032268 0.31288153 4
1.3984771 -5.3117871 -1.7139714 15
3.5913026 -13.64072 0.9863565 37
1.5139564 -5.7504082 -1.7050928 18
3.3163023 -12.596196 1.2152125 47
1.6113083 -6.1201768 -1.6567709 29
1.8214035 -6.9181738 -1.6950718 17
1.9808509 -7.5237975 -1.6537298 42
3.3811054 -12.842335 2.181818 11
2.1672316 -8.2317209 -1.6037875 20
3.7409887 -14.209269 2.7683942 9
2.2505167 -8.6522465 -1.468812 21
2.7774968 -10.678253 -1.5506668 4
3.3038666 -12.701914 -1.5348154 28
4.0369787 -15.520408 -1.121405 9
2.9430676 -11.314801 -0.54521245 21
4.0804758 -15.687635 -0.37633985 13
5.6669807 -21.78705 0 9
3.747273 -14.406617 0.34560874 5
3.5601466 -13.687198 0.65952826 50
1.3899195 -5.3436294 -1.7229077 13
3.5201771 -13.533534 0.97784626 20
1.5012434 -5.7716203 -1.7100543 15
3.3656359 -12.93939 1.247353 7
1.5975255 -6.1417832 -1.6613295 22
3.4808862 -13.382477 1.6170502 22
1.8067474 -6.9461493 -1.7006053 18
3.4615259 -13.308045 1.9325578 10
1.9550712 -7.5163894 -1.6508191 66
4.5839996 -17.623463 2.9917722 6
2.1477451 -8.2571354 -1.6074905 26
3.5296047 -13.569778 2.6417503 9
2.3805246 -9.2648163 -1.5715964 13
3.2666597 -12.713585 -1.5350478 25
3.0323679 -11.80174 -1.1368116 7
3.2873635 -12.794162 -0.92371523 6
3.5105715 -13.66287 -0.65785122 6
4.0299315 -15.684179 -0.37596846 3
3.6482728 -14.198793 0 3
3.4303434 -13.350629 0.32003048 4
3.5811706 -13.937637 0.67108095 5
1.3735836 -5.34588 -1.7223119 10
3.4626298 -13.476285 0.97296333 19
1.4932024 -5.8114276 -1.7205284 10
3.3425925 -13.009109 1.2531123 11
1.5768883 -6.137126 -1.6587969 22
3.3828318 -13.165717 1.5896386 6
1.7919418 -6.9740977 -1.7061387 18
1.9390904 -7.5467882 -1.6562247 30
5.4162221 -21.079514 3.5757306 8
2.1349754 -8.3091583 -1.6163779 28
3.4409056 -13.391736 2.6050901 6
2.3019369 -9.0506516 -1.5343087 67
2.7973039 -10.998314 -1.594924 8
3.2458675 -12.761956 -1.5399261 25
3.4398894 -13.524803 -1.3019735 25
2.9659402 -11.66135 -0.84140259 6
3.9563289 -15.555316 -0.74850255 10
3.5978088 -14.145703 -0.33887762 2
3.6130753 -14.205727 0 7
3.3967259 -13.355094 0.31993762 4
3.8046548 -14.958971 0.71980715 27
1.3562819 -5.3325682 -1.7169502 10
3.4272323 -13.475038 0.97226572 13
1.4808939 -5.8225117 -1.7227336 10
3.2931247 -12.94776 1.2464241 12
1.5623649 -6.1428361 -1.6593035 22
3.3428175 -13.14314 1.5859216 8
1.7691394 -6.9558229 -1.7006053 18
3.4431736 -13.537716 1.9631759 5
1.9273955 -7.5780468 -1.6620462 42
3.8036439 -14.954996 2.5352409 19
2.1180575 -8.3276834 -1.61897 22
3.7991323 -14.937258 2.9039257 9
2.3223231 -9.2592325 -1.568354 30
2.8186347 -11.238054 -1.6283255 100
3.1957972 -12.741823 -1.5362092 21
2.9486094 -11.75627 -0.84754115 8
3.5270822 -14.062675 -0.67611194 9
3.5479615 -14.145921 -0.33859909 2
3.5494044 -14.151673 0 10
3.5659592 -14.217679 0.34031671 15
3.3540573 -13.372814 0.64294451 12
1.3455578 -5.3648143 -1.7258863 10
3.3854403 -13.49794 0.97310281 13
1.4625127 -5.83112 -1.7238361 12
3.2443566 -12.935432 1.2441947 10
1.5819945 -6.3075008 -1.7023562 16
1.7408553 -6.9408875 -1.695533 21
1.9193879 -7.6527071 -1.6770158 24
3.7439475 -14.927329 2.5284317 9
2.0913863 -8.3384743 -1.6197106 22
3.4956849 -13.937491 2.7072942 7
2.295223 -9.253787 -1.5664086 25
2.7267439 -10.993576 -1.5918621 11
3.1715133 -12.786778 -1.5406229 21
3.4242878 -13.805904 -1.3270543 21
4.153151 -16.744505 -1.2063684 6
3.3916581 -13.67435 -0.65701276 15
3.5190969 -14.188152 -0.33938828 2
3.5238972 -14.207505 0 14
3.3387537 -13.461052 0.64676434 12
1.331048 -5.3664656 -1.7252907 10
3.3395238 -13.464156 0.97003359 6
1.4481671 -5.8386612 -1.7249388 10
3.2047269 -12.920689 1.2419653 7
1.5845724 -6.3886151 -1.7231228 11
3.3508434 -13.509794 1.627736 8
1.7030004 -6.8660884 -1.6761661 24
3.276479 -13.209975 1.9127952 21
1.8725019 -7.5494771 -1.6533139 30
5.282196 -21.296545 3.6049123 18
1.9053662 -7.6819782 -1.4912151 10
5.5817242 -22.504169 4.3684788 7
2.2670789 -9.2647858 -1.567057 27
2.6695981 -10.909746 -1.5785015 32
3.1487973 -12.868072 -1.5492181 21
3.4182913 -13.969402 -1.3417312 12
3.7050331 -15.141219 -1.0900147 11
3.3562808 -13.715986 -0.65850335 15
3.4683292 -14.17389 -0.33878478 8
3.4930325 -14.274844 0 7
3.1598959 -12.913427 0.30865717 13
3.3140187 -13.543275 0.65021157 33
1.315544 -5.3761845 -1.7270778 10
1.4316455 -5.8506517 -1.7271438 10
3.1617539 -12.921021 1.2410364 8
1.5654143 -6.3973198 -1.7241358 9
3.3083856 -13.520255 1.627736 2
1.6920611 -6.9148822 -1.6867718 17
3.1982453 -13.070148 1.8910842 13
1.8492408 -7.5572228 -1.6537298 30
4.0083156 -16.380632 2.7706397 16
2.0620115 -8.4267445 -1.6345228 21
5.5077295 -22.50823 4.3658867 7
2.2583563 -9.3420572 -1.579054 85
2.6321421 -10.888282 -1.5743262 35
3.0787776 -12.735863 -1.5322601 12
3.6674254 -15.170899 -1.0914098 25
3.3696041 -13.938913 -0.66875178 12
3.4216883 -14.154368 -0.33808848 11
3.4479873 -14.263159 0 3
3.1289914 -12.94358 0.3091678 13
3.3644402 -13.917552 0.66772687 15
1.2987317 -5.3724141 -1.724695 10
3.3988028 -14.059698 1.0114689 17
1.4180126 -5.865839 -1.7304515 11
3.116302 -12.891088 1.2373207 3
1.5461802 -6.3960252 -1.7226164 9
3.4932642 -14.450454 1.7385437 9
1.680976 -6.9536295 -1.6950718 24
3.163131 -13.084804 1.8919193 18
1.8318077 -7.5775695 -1.6570563 25
3.5823004 -14.818766 2.5047622 2
2.0514033 -8.4859619 -1.6448914 25
3.5380008 -14.635513 2.8369005 18
2.217591 -9.2869005 -1.5686783 61
3.0478132 -12.763732 -1.5345831 12
3.6370926 -15.231536 -1.0950371 14
3.329273 -13.942439 -0.66847223 15
3.3723953 -14.123028 -0.33711362 11
5.4650126 -22.886559 0 10
3.0942259 -12.9581 0.30930707 13
3.328809 -13.940495 0.66837907 13
1.2850538 -5.3815904 -1.7264822 10
3.3539658 -14.045848 1.0097947 14
1.4011797 -5.8679061 -1.7299002 10
3.6459348 -15.268565 1.4645344 7
1.5305594 -6.4097266 -1.7251488 9
3.6900406 -15.453273 1.8579466 10
1.6430187 -6.8806877 -1.6761661 35
3.2535362 -13.625266 1.9687428 11
1.8301772 -7.6644759 -1.6749368 22
3.5367782 -14.811437 2.5018442 9
2.0391092 -8.5394487 -1.6541488 42
2.2346847 -9.4755383 -1.5994811 28
2.5985661 -11.018472 -1.591027 22
3.1571581 -13.387021 -1.6084549 39
3.1429884 -13.326939 -1.27745 3
3.2953706 -13.973071 -0.66949707 40
3.3269775 -14.107091 -0.33651015 8
3.414181 -14.476853 0 14
3.4871533 -14.786271 0.35271126 16
1.2708974 -5.388875 -1.7276736 10
3.3238893 -14.093997 1.0125849 14
1.3856708 -5.8755383 -1.7310027 10
5.5226274 -23.417112 2.2446411 18
1.5135427 -6.4177423 -1.7261618 9
3.3482111 -14.197126 1.7057893 4
1.6483673 -6.9894276 -1.7015275 21
1.8047256 -7.65242 -1.6711943 17
3.9244015 -16.640297 2.8089001 11
2.0247293 -8.5852823 -1.6619254 59
3.3749998 -14.310717 2.7702458 15
2.2517378 -9.6762667 -1.6322296 11
2.5335412 -10.887245 -1.570986 16
3.1075184 -13.353765 -1.6033443 52
3.4199765 -14.696473 -1.0551364 16
3.2194829 -13.834903 -0.6624164 9
4.9949555 -21.464542 -0.51165879 12
4.9346528 -21.205406 0 17
3.4006665 -14.613493 0.34834763 16
3.2203887 -13.838796 0.66260272 11
1.2553351 -5.3944807 -1.7282693 10
3.268038 -14.043556 1.00826 14
1.3708458 -5.8908587 -1.7343104 11
5.371429 -23.08234 2.211014 23
1.4936168 -6.4184356 -1.7251488 9
5.2659426 -22.62904 2.7169971 24
1.6201231 -6.9620643 -1.6936885 21
3.0439305 -13.080512 1.8874657 7
1.7700404 -7.6062951 -1.6599671 24
3.8750107 -16.651867 2.8089001 11
2.0357749 -8.7482214 -1.6922902 23
3.3169324 -14.253668 2.7572854 4
2.2292011 -9.7098351 -1.6367689 19
2.5078754 -10.92367 -1.5751613 100
2.9927652 -13.035727 -1.5640854 21
3.0504823 -13.287128 -1.2718765 9
3.4379647 -14.974903 -1.0743892 11
5.0010428 -21.783276 -0.51890057 18
3.3036008 -14.389647 0 10
3.3823481 -14.732651 0.35094726 16
3.4095378 -14.851084 0.71058363 8
1.238897 -5.3963213 -1.7276736 10
3.2187674 -14.020135 1.0058883 17
1.3529315 -5.8930268 -1.7337592 11
1.4767314 -6.4322681 -1.7276814 9
1.5898795 -6.9251122 -1.6835439 21
1.7535931 -7.6382074 -1.6657885 26
3.3155391 -14.441648 2.4344018 9
2.0212445 -8.8040285 -1.7019181 23
5.0742207 -22.102018 4.2725697 10
2.2051756 -9.7375784 -1.6403354 21
2.4461446 -10.801644 -1.5565121 34
2.93433 -12.957365 -1.5536318 12
3.0369942 -13.410708 -1.2828377 3
4.2483964 -18.759998 -1.3450444 8
3.4157612 -15.083261 -0.72120464 20
3.2882779 -14.520323 0 21
3.3615835 -14.844025 0.35336116 5
3.3451602 -14.771503 0.70629799 16
1.2233016 -5.401835 -1.7282693 10
3.1978648 -14.121078 1.0124454 21
1.3345909 -5.8932648 -1.7326565 10
3.5419137 -15.640324 1.4961177 11
1.4602036 -6.4479432 -1.7307203 9
3.2475941 -14.340672 1.7194951 24
1.5461137 -6.8273034 -1.6586435 27
3.1635399 -13.969507 2.013 11
1.7348108 -7.6605487 -1.6695311 19
3.2744181 -14.459121 2.435699 9
1.9803537 -8.744813 -1.6893278 23
2.1732633 -9.7305956 -1.6380658 21
2.4235826 -10.851378 -1.5626357 26
2.8807178 -12.898161 -1.5455012 18
3.2638047 -14.6134 -1.0470448 11
3.3644621 -15.064084 -0.71980715 13
4.6973596 -21.032015 -0.50033194 12
4.5595589 -20.415024 0 7
3.2900693 -14.730997 0.3504366 21
3.2960927 -14.757966 0.70517999 14
1.2068529 -5.4035783 -1.7276736 10
3.4973376 -15.659022 1.1219631 17
1.3162616 -5.893446 -1.7315539 11
3.493757 -15.642991 1.4953746 11
1.4440184 -6.4654655 -1.7342659 11
3.2855682 -14.710843 1.7627031 9
1.586511 -7.1034641 -1.7245835 22
3.1691344 -14.189522 2.0433397 11
1.6933118 -7.581655 -1.6512347 24
1.9372628 -8.6739244 -1.6745157 31
3.4431183 -15.41626 2.976135 9
2.1422598 -9.7273645 -1.6364447 16
2.3717804 -10.769549 -1.5498317 53
2.8479888 -12.93187 -1.5485212 25
3.2910004 -14.943455 -1.4275634 16
3.2298708 -14.665883 -1.0501139 11
3.2853756 -14.917913 -0.71235383 13
4.6654673 -21.1845 -0.5036279 12
4.5084286 -20.471434 0 15
3.2050629 -14.553238 0.34598014 31
3.2634616 -14.818409 0.70760232 8
1.1912252 -5.408999 -1.7282693 10
3.0565126 -13.878715 0.99375069 20
1.2991828 -5.8992028 -1.7321053 12
3.448612 -15.659122 1.4959317 11
1.4260767 -6.47539 -1.7357854 11
3.1966176 -14.51489 1.7380792 9
1.5683572 -7.1214437 -1.7278113 22
3.1687632 -14.388412 2.0706174 8
1.6981577 -7.7108288 -1.6782633 26
3.2068105 -14.561172 2.4496412 57
1.9677389 -8.9349174 -1.7237661 14
3.3969386 -15.424488 2.9757645 16
2.1125925 -9.7136545 -1.6332022 16
2.3692529 -10.893775 -1.5668108 24
3.0492675 -14.020468 -1.6779131 21
3.2696424 -15.033746 -1.4353663 30
3.1957052 -14.693785 -1.051509 11
3.2395167 -14.895229 -0.71086317 13
3.3866372 -15.571687 -0.3699801 13
3.1142507 -14.319259 0 14
3.2421637 -14.907399 0.35419676 22
3.2369692 -14.883516 0.7103042 4
1.1758434 -5.4065027 -1.7264822 10
3.0464563 -14.007542 1.0024005 17
1.2853688 -5.9100986 -1.7343104 10
3.0952837 -14.232049 1.3588233 9
1.4066523 -6.4677577 -1.7327465 9
3.1320109 -14.40092 1.7234441 47
1.5501218 -7.1274271 -1.7282724 22
4.813005 -22.130095 3.182889 27
1.6825385 -7.7362766 -1.6828375 26
5.0656919 -23.291945 3.9161837 10
1.9435055 -8.9361973 -1.7230256 17
3.3402565 -15.358429 2.9613228 6
2.0609853 -9.6218252 -1.6166658 19
2.3275514 -10.866304 -1.5618006 24
2.9985499 -13.998899 -1.6741962 35
3.1704226 -14.801295 -1.0584848 24
3.1897779 -14.891657 -0.71021098 13
4.9211211 -22.974529 -0.54550016 13
3.058779 -14.280082 0 14
3.2057853 -14.966389 0.35535729 16
3.4136441 -15.93679 0.76005524 9
1.1584531 -5.4083033 -1.7258863 10
1.2671984 -5.915987 -1.7348616 10
3.1527443 -14.718763 1.4043404 7
1.388353 -6.4816041 -1.7352788 9
3.1013172 -14.478673 1.7315748 20
1.5273156 -7.1303587 -1.7278113 22
3.0684187 -14.325086 2.0589271 8
1.6365103 -7.6401401 -1.6607988 60
3.2506194 -15.175699 2.5498316 11
1.8845487 -8.7981215 -1.6952527 55
2.0370126 -9.6329813 -1.6176387 21
2.3076994 -10.913053 -1.567646 24
2.9499714 -13.95034 -1.6674595 40
3.2023635 -15.143895 -1.4440981 14
3.109447 -14.704496 -0.7008943 6
3.306823 -15.637882 -0.37109423 10
3.2580109 -15.40705 0.36561647 17
3.3727355 -15.94958 0.76024163 9
1.1438948 -5.4094496 -1.7252907 10
2.9157839 -13.788668 0.98551941 20
1.2521034 -5.9211655 -1.735413 11
1.3701781 -6.4795375 -1.7337594 9
3.0732634 -14.533385 1.73715 36
1.5086426 -7.1343327 -1.7278113 18
3.0054998 -14.212933 2.0416696 17
1.6075979 -7.6022902 -1.6516505 66
3.1843376 -15.058652 2.5287559 14
1.839144 -8.6972656 -1.674886 100
3.256216 -15.398563 2.9653962 6
2.0072148 -9.6331854 -1.6166658 21
2.2773302 -10.929544 -1.5690376 17
2.6540985 -12.737761 -1.5215743 3
3.1468561 -15.102644 -1.4392678 21
3.1133466 -14.941822 -1.0672741 11
3.1016674 -14.885771 -0.70909303 10
3.2526617 -15.610434 -0.3702122 13
3.1058331 -14.905763 0.35350043 16
3.3282509 -15.973207 0.76089382 9
1.1262822 -5.4053435 -1.7229077 10
2.9098599 -13.965232 0.99751759 14
1.2349219 -5.9267364 -1.7359642 10
5.0515432 -24.243771 2.3104084 19
1.3533154 -6.4949389 -1.7367984 9
3.0402598 -14.591058 1.7429575 7
1.4870715 -7.1368723 -1.7273502 15
2.9499853 -14.157804 2.0324843 14
1.6452918 -7.8962159 -1.71444 17
4.9359126 -23.688828 3.9755197 16
1.8554271 -8.9047146 -1.7137679 17
3.2012935 -15.363903 2.9568791 6
1.9876463 -9.6916437 -1.6254203 24
2.2481551 -10.961868 -1.5726562 30
3.0785897 -15.011018 -1.4296069 20
3.0703979 -14.971073 -1.0686692 27
3.0576961 -14.909142 -0.70974517 13
4.3569007 -21.243984 -0.5034886 6
4.2523975 -20.734432 0 8
3.0336819 -14.792049 0.35057589 21
3.2800593 -15.993371 0.76135957 7
1.109295 -5.4088554 -1.7229077 10
2.8972368 -14.126752 1.0083996 14
1.2155237 -5.9268203 -1.7348616 10
4.9513488 -24.142477 2.2992613 19
1.3352363 -6.5105314 -1.7398374 9
2.9924095 -14.590808 1.7417959 9
1.4665976 -7.151041 -1.7296557 15
2.8995233 -14.137899 2.0283089 14
1.6271584 -7.9339256 -1.721509 17
3.1672292 -15.443218 2.5900376 10
1.8412629 -8.9778862 -1.7267286 14
3.1364253 -15.29302 2.9413264 15
1.9642245 -9.7064857 -1.6270416 32
2.2661955 -11.198717 -1.6057793 100
3.0408609 -15.026833 -1.4303502 10
3.0224879 -14.93604 -1.0655999 11
3.0182581 -14.915137 -0.70965201 6
4.3111844 -21.30431 -0.5046491 18
4.2207122 -20.857229 0 8
3.0068438 -14.858732 0.35196853 22
2.79913 -13.832286 0.65813071 7
1.0951312 -5.4117413 -1.7229077 10
4.946465 -24.443638 1.7439119 19
1.2007661 -5.9337511 -1.7359642 10
4.832437 -23.880154 2.2730658 18
1.3208737 -6.5272789 -1.7433829 9
4.5199513 -22.33596 2.6649616 17
1.4532754 -7.1815605 -1.7361114 15
2.9701345 -14.677328 2.1045759 18
1.6110383 -7.9611678 -1.726499 17
4.8342314 -23.889019 4.0043769 5
1.8087871 -8.9383698 -1.7182117 21
3.0819545 -15.229902 2.9276249 9
1.936187 -9.7161427 -1.6276902 48
2.2592778 -11.337472 -1.624707 35
2.7645135 -13.872837 -1.6542183 20
2.9799159 -14.953765 -1.4225472 3
2.9660702 -14.884286 -1.061275 11
2.9454873 -14.780996 -0.70285082 13
4.1373677 -20.762072 -0.49151182 5
4.1713152 -20.932428 0 8
2.9658689 -14.883276 0.35233989 22
3.1828754 -15.972254 0.75949627 9
1.079442 -5.4168386 -1.7235034 10
4.9175858 -24.677351 1.7595373 28
1.1835303 -5.9391727 -1.7365154 10
3.1927948 -16.022032 1.524171 11
1.3015007 -6.5311694 -1.7433829 9
5.2844481 -26.518333 3.1620867 17
1.4319605 -7.1858406 -1.7361114 15
1.5900856 -7.9793425 -1.7294097 14
3.0959706 -15.53615 2.6026831 2
1.7807213 -8.9359875 -1.7167304 17
4.3404121 -21.780985 4.1844373 6
1.9343261 -9.8593435 -1.6507112 24
2.2404993 -11.419922 -1.6355624 21
2.7286932 -13.908268 -1.6574706 43
3.0340528 -15.464699 -1.1020128 2
2.8993101 -14.777909 -0.70229185 13
4.0676627 -20.733053 -0.49053696 5
4.1846571 -21.32938 0 8
2.9151516 -14.858655 0.35155073 5
3.1143157 -15.873802 0.75437206 9
1.0604246 -5.4050303 -1.7187375 10
4.8293638 -24.615479 1.7540964 28
1.165903 -5.9426579 -1.7365154 10
4.7017603 -23.965078 2.2784536 19
1.2791363 -6.5198135 -1.739331 9
6.4880562 -33.069904 3.9409933 17
1.4113823 -7.1938772 -1.7370337 15
2.8948042 -14.754943 2.1132045 18
1.56678 -7.9859457 -1.7298255 14
3.5966079 -18.332067 3.0692658 9
1.7557131 -8.948946 -1.7182117 19
2.9707119 -15.141848 2.9072583 16
1.910532 -9.8840847 -1.6539537 16
2.2052176 -11.408632 -1.6330572 17
2.6683555 -13.804665 -1.6442294 13
3.166976 -16.384264 -1.5568689 23
3.3952405 -17.565184 -1.2510126 10
2.8485529 -14.736911 -0.69996268 3
4.5778008 -23.683128 -0.5600301 7
4.148232 -21.460766 0 35
2.843291 -14.709688 0.347837 5
3.0684597 -15.874593 0.75399941 6
1.0464139 -5.4135938 -1.7205247 10
4.7590923 -24.621035 1.7535383 28
1.1482091 -5.9402285 -1.7348616 10
3.0864787 -15.967813 1.517297 8
1.2631279 -6.5347576 -1.7423699 9
4.8108058 -24.888573 2.9643984 29
1.3905494 -7.1939692 -1.7361114 15
2.7528574 -14.241833 2.0386078 8
1.5467008 -8.0018139 -1.7323204 14
3.5296714 -18.260658 3.0556479 13
1.7400414 -9.0020571 -1.7274692 17
2.9314008 -15.165523 2.9102209 18
1.8875773 -9.9326916 -1.6610869 21
2.1793497 -11.468038 -1.6405725 27
3.1258986 -16.448908 -1.5620708 16
3.3553143 -17.656126 -1.2567326 11
2.7817283 -14.637836 -0.69483846 13
4.1636829 -21.909872 -0.51778644 25
4.0972214 -21.560143 0 35
4.1013436 -21.581833 0.51003402 10
3.9902024 -20.996994 0.99669915 9
1.0286889 -5.4131026 -1.7193332 8
4.6832113 -24.643703 1.7540964 28
1.1291832 -5.9419174 -1.7343104 10
3.038903 -15.991126 1.5185976 8
1.2407867 -6.5291901 -1.7398374 11
2.7176909 -14.300863 1.7023047 6
1.3686693 -7.202126 -1.7370337 15
2.7132795 -14.27765 2.0425045 34
1.5215553 -8.0066338 -1.7323204 14
3.3978603 -17.880009 2.9901509 12
1.7121197 -9.0094099 -1.7278395 19
2.8650301 -15.076182 2.8913355 19
1.838413 -9.823472 -1.6419567 48
2.173547 -11.614245 -1.6606135 24
2.6123347 -13.958886 -1.6607227 13
3.1173151 -16.657225 -1.5810208 32
3.5177579 -18.796972 -1.3372315 16
2.7511301 -14.700533 -0.69744712 3
4.4632969 -23.849415 -0.563326 21
3.9994707 -21.370981 0 25
4.0399551 -21.587307 0.50989479 30
4.5338893 -24.226622 1.1493996 6
1.0121636 -5.4084482 -1.7169502 10
3.0674412 -16.390726 1.1660492 18
1.1129391 -5.9469371 -1.7348616 10
2.6832356 -14.337742 1.3608669 2
1.2236161 -6.5383348 -1.741357 11
2.6792054 -14.316207 1.703234 9
1.3510573 -7.2193103 -1.7402614 15
2.6803193 -14.322159 2.0477931 17
1.4999098 -8.0146971 -1.733152 14
3.389302 -18.110575 3.0271146 26
1.6985229 -9.0759764 -1.7396892 14
2.8995643 -15.493684 2.9698398 16
1.7888939 -9.7182522 -1.6234751 29
2.1440976 -11.647913 -1.6645105 14
2.5741439 -13.984159 -1.6628135 30
3.1003246 -16.842661 -1.5977414 37
3.2951035 -17.900808 -1.2727766 3
3.5227177 -19.137333 -0.90744525 10
4.3972216 -23.888117 -0.5639295 21
4.3788548 -23.78834 0 11
3.9755256 -21.597233 0.50984836 40
4.4779024 -24.326418 1.1534989 19
0.9940384 -5.4001613 -1.7133757 10
2.9985695 -16.289871 1.1582365 9
1.0932014 -5.9388685 -1.7315539 10
2.6385205 -14.333888 1.3597523 9
1.2035109 -6.5381308 -1.7403439 9
1.3296316 -7.2232871 -1.7402614 15
2.6431918 -14.359265 2.0519683 20
1.4715196 -7.9941001 -1.7277464 14
2.8350053 -15.401302 2.5728528 9
1.6669613 -9.0558472 -1.7348753 19
2.8542931 -15.506083 2.9705803 6
1.7711929 -9.7656221 -1.6306083 79
2.1245518 -11.713897 -1.6731391 21
2.5173171 -13.87944 -1.6495723 37
3.0995743 -17.089766 -1.620407 29
2.6593578 -14.662594 -0.69493163 9
4.3385906 -23.921186 -0.56444013 14
4.3258405 -23.850887 0 22
3.9232509 -21.631176 0.51040542 20
2.8793366 -15.875466 0.75241554 6
0.98057842 -5.4065018 -1.7145671 10
2.9623203 -16.333004 1.1607478 9
1.0773062 -5.9398184 -1.7310027 10
4.7911558 -26.416443 2.5047383 15
1.1839726 -6.5279326 -1.7367984 9
2.5782912 -14.215626 1.6895281 9
1.3096741 -7.2209988 -1.7388781 15
2.5865033 -14.260904 2.0369377 8
1.4607098 -8.0537472 -1.7398051 13
4.5017672 -24.820875 4.1444492 23
1.6428959 -9.0582457 -1.7345048 17
2.7063591 -14.92174 2.8572674 9
1.6821904 -9.4247046 -1.5728934 100
2.0880051 -11.698338 -1.6700774 21
2.4918127 -13.960726 -1.6583998 27
3.0749333 -17.227739 -1.6326687 25
3.3489454 -18.76293 -1.3327672 16
3.1621623 -17.716452 -0.83924711 18
4.2735314 -23.94305 -0.56467223 14
4.404006 -24.674053 0 12
4.7242827 -26.468447 0.62423116 14
2.8462272 -15.946382 0.75539696 4
0.96346438 -5.3979425 -1.7109927 8
2.9279172 -16.40406 1.1652122 18
1.0603774 -5.9409108 -1.7304515 10
4.5571156 -25.53187 2.4196494 21
1.165399 -6.5293093 -1.7362919 9
2.5375373 -14.216905 1.6888313 9
1.2918983 -7.2380385 -1.742106 15
2.534142 -14.197882 2.0269172 17
1.4402767 -8.0693493 -1.7423 11
4.9064755 -27.489208 4.587687 20
1.613796 -9.0415154 -1.7304317 19
2.6632986 -14.921498 2.8557861 12
2.0512428 -11.70484 -1.6700774 22
2.4534273 -13.999791 -1.6621165 13
3.0304193 -17.292234 -1.6378707 30
3.3571391 -19.156569 -1.3599721 42
3.1082122 -17.736137 -0.83971292 9
4.5976176 -26.23501 -0.61838204 8
4.6414504 -26.48513 0.62427759 14
4.3393583 -24.761326 1.1723186 20
0.94748992 -5.4065847 -1.71278 10
4.2615142 -24.317131 1.7263333 9
1.0400486 -5.9347448 -1.727695 10
4.5655661 -26.052118 2.4675815 37
1.1448805 -6.532938 -1.7362919 9
1.2684807 -7.2382278 -1.7411838 15
2.5008068 -14.270149 2.0361028 11
1.4139055 -8.0680542 -1.7410527 11
4.7775068 -27.261497 4.5471568 20
1.584365 -9.0407324 -1.7293206 21
2.0222497 -11.73199 -1.6731391 26
2.4197226 -14.03791 -1.6658335 20
2.9821193 -17.300631 -1.6378707 30
3.1057122 -18.017649 -1.2784966 11
3.6987097 -21.457897 -1.0154256 27
4.7019706 -27.278267 -0.64266056 25
4.4107289 -25.588644 0 12
4.5552459 -26.427053 0.6226064 14
4.2684994 -24.763504 1.1718528 20
0.92979395 -5.3941574 -1.7080139 8
4.252223 -24.669079 1.750469 9
1.0237986 -5.9395204 -1.7282463 8
5.6844964 -32.978348 3.1220982 16
1.1279476 -6.5437365 -1.738318 9
2.4507663 -14.218009 1.6872052 18
1.2446268 -7.2206454 -1.7361114 15
2.4488366 -14.206814 2.026082 23
1.3930317 -8.0816107 -1.7431319 13
2.60479 -15.111571 2.5193532 9
1.6051586 -9.4701586 -1.5780811 67
1.9838542 -11.704396 -1.6684073 17
2.3443284 -13.831133 -1.6405126 13
2.7983544 -16.509808 -1.5622567 4
3.0643883 -18.079361 -1.2822634 15
3.5770099 -21.103741 -0.99818981 26
3.5552065 -20.975103 -0.49392575 17
4.4903264 -26.492149 0 13
4.3394237 -25.601849 0.6028772 13
4.2464056 -25.053061 1.1849893 21
0.91281289 -5.3854384 -1.7044394 8
4.1943212 -24.745771 1.755073 19
1.0062448 -5.9366703 -1.7265925 10
4.3770671 -25.823938 2.4436154 29
1.1086999 -6.5411377 -1.7367984 9
4.176105 -24.638296 2.9223518 21
1.2199054 -7.1972308 -1.7296557 15
2.4230559 -14.29561 2.0377727 25
1.3711123 -8.0893259 -1.7439635 11
4.1670799 -24.585052 4.0967855 11
1.5505992 -9.1482677 -1.7482061 14
5.0764799 -29.950354 5.7234216 6
1.6297789 -9.8022194 -1.6325537 24
1.9334302 -11.628514 -1.6567167 16
2.366678 -14.234262 -1.6874374 28
2.8114686 -16.90943 -1.5992278 12
3.1139245 -18.728537 -1.3276052 16
3.5156071 -21.144434 -0.99958724 26
3.4892929 -20.986168 -0.49392575 17
3.5250044 -21.200953 0 16
4.2530675 -25.579853 0.60204166 13
4.1722646 -25.093866 1.1862937 21
0.89651561 -5.392046 -1.7056309 8
4.1267023 -24.819836 1.7593979 19
0.98727351 -5.9379048 -1.7260412 10
4.2828517 -25.758986 2.4361842 22
1.0849712 -6.5255022 -1.7317333 9
4.0928149 -24.616022 2.9181702 21
1.2065449 -7.2567005 -1.7430282 15
2.3830049 -14.332458 2.0419478 25
1.3456919 -8.0935936 -1.7439635 11
4.5235667 -27.206755 4.5312686 6
1.5218511 -9.1530933 -1.7482061 17
4.0807271 -24.543318 4.6876812 3
1.6133506 -9.8629341 -1.6419567 26
1.906178 -11.653082 -1.6595002 16
2.7199349 -16.627842 -1.5719174 12
3.0745456 -18.795691 -1.3317906 16
3.2509296 -19.873983 -0.93912202 5
3.4566119 -21.131386 -0.49712884 11
3.4717493 -21.223925 0 16
4.1935105 -25.636284 0.60310936 13
4.1604156 -25.433966 1.2018526 7
0.88116366 -5.3868384 -1.7032479 8
4.3886194 -26.829048 1.9010034 10
0.97079408 -5.9347777 -1.7243874 10
4.236618 -25.899817 2.4484458 7
1.0678841 -6.5283203 -1.7317333 9
4.2008824 -25.681353 3.0431485 23
1.1859722 -7.2502313 -1.7407225 15
2.3387609 -14.297601 2.0361028 5
1.3254461 -8.1028805 -1.7452108 11
2.3104303 -14.124408 2.3513961 6
1.497249 -9.1531668 -1.7474656 17
4.0066242 -24.493788 4.6762013 7
1.5897098 -9.9027529 -1.6477931 40
1.8703378 -11.650865 -1.6583868 22
2.2304673 -13.894213 -1.6456231 20
2.6696393 -16.62994 -1.5713601 4
3.0073786 -18.733814 -1.3267682 8
3.1748466 -19.77702 -0.93409091 5
3.3758328 -21.02902 -0.49448282 23
3.3859358 -21.091953 0 16
4.3063102 -26.825226 0.63077658 14
4.0744815 -25.381102 1.198778 14
0.86366332 -5.3800035 -1.7002691 8
4.2808499 -26.66663 1.8885868 10
0.95165694 -5.9281406 -1.7216311 10
4.2165656 -26.266184 2.4818869 22
1.0469757 -6.5219088 -1.729201 9
4.0777502 -25.401461 3.0085354 22
1.1635293 -7.2479534 -1.7393392 15
2.2790623 -14.196924 2.0207934 2
1.300778 -8.1029148 -1.7443793 11
2.2688241 -14.133149 2.3517203 13
1.4610497 -9.1012926 -1.7367268 23
3.9258308 -24.455114 4.6665735 7
1.5851908 -10.065336 -1.6740565 60
1.7029631 -10.813145 -1.5384196 6
2.2065399 -14.010657 -1.658632 13
2.5979812 -16.496157 -1.5579838 7
3.0191364 -19.170326 -1.3570424 12
3.2345724 -20.53826 -0.96958756 24
3.3028488 -20.971788 -0.49290445 17
4.092803 -25.987686 0 13
4.2248349 -26.826035 0.63049811 29
3.9826858 -25.288485 1.1938403 21
0.84740007 -5.3806562 -1.6996734 10
5.1409435 -32.642967 2.3107531 18
0.93256855 -5.9214425 -1.7188746 10
5.1708684 -32.832977 3.1009188 32
1.0294267 -6.5364537 -1.7322398 9
3.9461215 -25.056316 2.9662569 22
1.1417168 -7.2494516 -1.7388781 15
2.2507954 -14.291663 2.0333192 5
1.2761223 -8.1028738 -1.7435477 13
2.2238111 -14.120324 2.3484781 9
1.4490223 -9.2007208 -1.7548717 14
3.8471403 -24.427824 4.6591678 11
1.5433304 -10.003951 -1.6630324 79
2.2409563 -14.526 -1.718798 29
2.5248899 -16.366472 -1.5449787 7
2.952203 -19.136339 -1.3539733 17
3.1624174 -20.498959 -0.96725839 24
3.9871941 -25.845205 -0.60714799 7
4.0117488 -26.004372 0 26
4.167973 -27.017025 0.63467604 14
0.83049172 -5.3832922 -1.6996734 10
3.973078 -25.753706 1.8221786 10
0.91337466 -5.9205437 -1.7177721 10
5.0889468 -32.986828 3.1139238 32
1.0071164 -6.528183 -1.729201 11
3.8410335 -24.897787 2.9460464 21
1.1213098 -7.2683902 -1.7425672 15
2.1992416 -14.255603 2.0271957 14
1.2518526 -8.1145763 -1.7452108 13
4.0709138 -26.387884 4.3866572 25
1.4219077 -9.2168818 -1.7570935 17
3.7544954 -24.336842 4.6395416 18
1.564433 -10.332137 -1.7168564 29
1.7793076 -11.751254 -1.6703557 35
2.206033 -14.569518 -1.7232119 32
2.5438676 -16.800713 -1.5852938 4
3.0645223 -20.239323 -1.4314028 13
3.7087247 -24.493893 -1.1552691 17
3.6866112 -24.347845 -0.57172835 7
3.9232447 -25.910666 0 26
4.1044827 -27.107634 0.6365329 14
4.7627206 -31.454899 1.4835892 54
0.81459779 -5.3799272 -1.6978861 8
4.7619572 -31.449858 2.2242548 15
0.89568615 -5.9154673 -1.715567 8
4.7502623 -31.37262 2.9602804 39
0.98801303 -6.5252304 -1.7276814 9
3.7952809 -25.065544 2.9646306 29
1.0963461 -7.240706 -1.7351892 15
2.165946 -14.304769 2.0333192 11
1.2297729 -8.1219091 -1.7460426 13
3.7815256 -24.974699 4.1499615 23
1.3985171 -9.2363625 -1.7600559 8
4.4459486 -29.362812 5.5952969 10
1.5610964 -10.508252 -1.7453897 17
1.6294919 -10.968645 -1.5584606 17
2.1574597 -14.522569 -1.7169397 32
2.5133312 -16.918056 -1.5956979 8
3.643544 -24.52589 -1.1562939 8
3.6215467 -24.377819 -0.57219255 7
4.8045597 -32.341068 0 20
4.0458136 -27.2337 0.6392253 14
3.9981811 -26.913069 1.2688395 24
0.79816914 -5.3727384 -1.6949073 8
3.8174567 -25.696554 1.8165982 10
0.87803453 -5.9103384 -1.7133619 8
4.6632257 -31.389702 2.9606521 26
0.96637666 -6.5049987 -1.7216033 9
3.8131371 -25.667477 3.0345533 7
1.0749793 -7.2360387 -1.7333447 15
3.6582806 -24.625088 3.498812 7
1.2070888 -8.1253119 -1.7460426 11
4.4396849 -29.884977 4.9638066 17
1.3730093 -9.2421761 -1.7604262 8
3.8761373 -26.091553 4.9698529 12
1.5344564 -10.544086 -1.7505774 22
2.1209381 -14.57412 -1.7222826 29
2.4720104 -16.98653 -1.6014572 4
2.9955969 -20.584377 -1.4545621 19
3.569603 -24.528687 -1.1559212 8
3.5581222 -24.449795 -0.57363164 7
4.69907 -32.289867 0 19
3.9744892 -27.310879 0.64075726 14
3.8903983 -26.733046 1.2598023 32
0.78194845 -5.3731937 -1.6943116 8
3.7437778 -25.725536 1.8178537 10
0.86049324 -5.9129176 -1.7133619 10
3.7131772 -25.515263 2.4055297 14
0.94567734 -6.4982638 -1.7190708 9
3.7117844 -25.505692 3.0141108 30
1.0543443 -7.2449741 -1.734728 15
2.0652668 -14.191573 2.0155051 11
1.1824104 -8.1249847 -1.7452108 13
4.3333683 -29.776934 4.9437032 25
1.3447304 -9.2403746 -1.7593154 12
3.8137016 -26.20602 4.9894791 8
1.5043367 -10.530483 -1.7476593 29
2.0808117 -14.565856 -1.7206566 29
2.428097 -16.996883 -1.6018287 8
3.0415816 -21.291327 -1.5039496 15
3.5065088 -24.545856 -1.1562939 8
3.7259707 -26.082108 -0.61169738 16
3.896194 -27.273684 0.63964313 14
3.8367896 -26.857849 1.265206 32
0.76598972 -5.3619924 -1.6901414 8
3.8533285 -26.973621 1.9053283 32
0.84338009 -5.9037313 -1.7100543 8
3.6210246 -25.347475 2.3888092 21
0.92893642 -6.5026331 -1.7195773 9
4.3630466 -30.541693 3.6078732 12
1.0339986 -7.2380767 -1.7324225 15
1.1608598 -8.1261168 -1.7447951 11
4.2523327 -29.766687 4.9401369 8
1.3222038 -9.255537 -1.7615372 10
3.4340608 -24.038713 4.5751085 14
1.4745218 -10.558612 -1.7515502 27
2.0366893 -14.584126 -1.7220504 29
2.3826742 -17.061621 -1.6072164 4
3.0480781 -21.82638 -1.54106 10
3.4191539 -24.483543 -1.1528467 8
4.7077594 -33.710865 0 21
3.8057895 -27.252127 0.63885397 14
3.7474189 -26.834152 1.2635289 32
0.74676389 -5.3473544 -1.6847796 7
3.783469 -27.092297 1.9128619 11
0.82429665 -5.9025435 -1.7089517 8
3.550463 -25.423809 2.3949401 21
0.9074325 -6.4978547 -1.7175514 9
4.2629528 -30.525738 3.6043887 12
1.0104465 -7.2355075 -1.7310392 15
1.9777445 -14.162041 2.0096598 11
1.1347836 -8.1258478 -1.7439635 11
4.1601605 -29.789673 4.9417582 8
1.2931197 -9.2596455 -1.7615372 12
3.3596101 -24.057169 4.5765896 14
1.437005 -10.504028 -1.741823 58
1.6316214 -11.926609 -1.6917883 21
1.9900301 -14.546457 -1.7169397 32
2.3253019 -16.997183 -1.6005282 12
2.9000371 -21.198305 -1.4961369 4
3.6402435 -26.608969 -1.2524421 10
3.742137 -27.353775 -0.64098936 8
4.6201062 -33.771442 0 21
3.7318385 -27.278498 0.6392253 14
3.6678641 -26.810867 1.2619451 32
0.73338068 -5.3607688 -1.6883541 8
3.7183428 -27.17985 1.9183031 33
0.80728883 -5.9010129 -1.7078491 8
3.6870139 -26.950844 2.5378079 8
0.88797188 -6.4907789 -1.7150187 9
4.1607275 -30.413532 3.5897539 35
0.98944539 -7.2325168 -1.7296557 15
4.0159683 -29.355394 4.1640596 31
1.1115568 -8.1251097 -1.7431319 11
4.1229634 -30.137491 4.9975276 18
1.266457 -9.2573786 -1.7604262 14
3.3094645 -24.191084 4.6002893 11
1.4186728 -10.590155 -1.7554411 32
1.6030436 -11.966453 -1.6967986 29
1.9422804 -14.498799 -1.7106676 24
3.5744123 -26.682392 -1.2554234 10
4.4401407 -33.144909 -0.7764011 16
4.5478234 -33.948742 0 21
3.6527293 -27.267014 0.63871473 14
3.6035914 -26.900209 1.2656718 16
0.716887 -5.3514414 -1.6847796 8
3.6392505 -27.166397 1.916629 11
0.78876519 -5.8880005 -1.703439 10
4.2626991 -31.820339 2.995208 13
0.86855853 -6.483644 -1.7124863 9
4.0897608 -30.529383 3.6020656 12
0.96846974 -7.2294645 -1.7282724 15
3.9473896 -29.466604 4.1782551 31
1.0891229 -8.1301203 -1.7435477 11
1.2432106 -9.2803593 -1.7641294 12
3.233026 -24.133999 4.5876989 11
1.3923057 -10.647396 -1.7641957 26
1.5834188 -12.108897 -1.7162828 36
1.8799807 -14.376799 -1.695568 38
2.2326627 -17.073866 -1.6064732 12
2.9977043 -22.924379 -1.616676 11
3.4452393 -26.346819 -1.2391192 29
4.4520416 -34.04615 0 21
3.5644588 -27.258528 0.63825047 14
4.2801275 -32.731468 1.539396 48
0.70031941 -5.3555608 -1.6853755 8
0.76951617 -5.8847299 -1.7017851 8
4.3101468 -32.961037 3.1012905 16
0.84818572 -6.4863405 -1.7124863 9
3.9487579 -30.197382 3.5614128 34
0.9434824 -7.2151041 -1.7241223 15
3.858139 -29.504391 4.1818738 31
1.0623083 -8.1238022 -1.7414684 11
4.9937234 -38.188557 6.3275642 26
1.2137952 -9.2822704 -1.7637589 10
3.1301799 -23.937462 4.5484467 14
1.3623161 -10.649284 -1.7638713 26
1.5666869 -12.24686 -1.7352103 31
1.8577216 -14.521891 -1.7120614 21
2.9617758 -23.15233 -1.632162 16
3.3495951 -26.183931 -1.2310138 29
4.3079672 -33.675568 0 21
3.4941585 -27.31399 0.63931817 14
4.4193974 -34.546623 1.6241779 19
0.68487632 -5.3537083 -1.684184 8
3.99722 -31.246443 2.20277 15
0.75234777 -5.8811355 -1.7001313 8
4.5271177 -35.38868 3.3285041 62
0.82908678 -6.4810076 -1.7104602 9
3.8795378 -30.326517 3.575351 11
0.92234218 -7.2099891 -1.7222779 14
3.8667059 -30.226208 4.2826352 35
1.0376319 -8.1112146 -1.7381419 11
3.8415313 -30.029417 4.9738579 9
1.1883677 -9.2895231 -1.7644997 10
3.0535939 -23.870075 4.5340047 10
1.3331598 -10.672863 -1.7671138 22
1.5605381 -12.493182 -1.769447 26
1.8089639 -14.482002 -1.7067184 35
2.3090391 -18.485449 -1.7380083 14
2.8614163 -22.907608 -1.6143043 16
3.272388 -26.19772 -1.2312001 29
3.3570931 -26.875843 -0.62882692 8
4.2067938 -33.67828 0 21
3.4059157 -27.266703 0.637972 14
3.4100685 -27.299948 1.2830008 8
0.66827887 -5.3500328 -1.6823967 8
3.9156222 -31.347254 2.209048 15
0.73465681 -5.881434 -1.6995801 8
4.5472398 -36.403786 3.4226964 22
0.80817527 -6.4699998 -1.7069148 9
4.5629129 -36.529259 4.3050098 67
0.89974004 -7.2030387 -1.7199723 14
3.8246315 -30.618809 4.3366342 37
1.0133189 -8.1123161 -1.7377261 11
4.0085306 -32.091049 5.3133383 13
1.1608006 -9.2930079 -1.7644997 10
3.6904445 -29.54455 5.6097388 15
1.3059803 -10.698093 -1.7706804 17
1.5378833 -12.597754 -1.7836426 22
2.6185293 -21.449995 -1.5110648 5
3.1992157 -26.206757 -1.2312001 29
3.2888107 -26.940685 -0.63012671 8
3.9913085 -32.695278 0 20
4.0052552 -32.809525 0.76739532 24
4.4309688 -36.296806 1.7052331 23
0.6528731 -5.3480878 -1.6812052 8
3.8084843 -31.197653 2.1977475 15
0.71706468 -5.8739209 -1.6968236 8
3.7636333 -30.83025 2.8976715 11
0.78963518 -6.4683905 -1.7059017 9
3.7454863 -30.681597 3.61461 36
0.87938547 -7.2035909 -1.7195112 14
3.7515903 -30.731598 4.3511081 12
0.99018633 -8.1112289 -1.7368944 11
4.38906 -35.953506 5.9507961 21
1.1334155 -9.2845078 -1.7622778 12
3.6060188 -29.539131 5.6067762 20
1.2772654 -10.727397 -1.7748957 13
1.5058831 -12.647493 -1.7900445 22
1.6848913 -14.150934 -1.6665303 13
2.0228906 -16.989695 -1.5962551 8
3.0142064 -25.315481 -1.1889024 9
3.2081513 -26.94437 -0.62998748 8
3.8748908 -32.544128 0 40
3.2537761 -27.32756 0.63894683 14
5.1797299 -43.503109 2.043056 27
0.63655043 -5.34621 -1.6800137 8
3.7331202 -31.353437 2.207932 31
0.69895101 -5.870295 -1.6951698 8
3.8682604 -32.488441 3.0524292 45
0.76906675 -6.4591775 -1.7028627 9
3.6741624 -30.858269 3.6341233 25
0.855937 -7.1887765 -1.7153611 14
3.6725662 -30.844862 4.3655825 13
0.96426475 -8.0985918 -1.7335678 11
4.3455958 -36.497448 6.0386653 22
1.1042356 -9.274168 -1.7596856 10
3.5195189 -29.55946 5.6086278 15
1.243786 -10.733318 -1.7752198 11
1.4720709 -12.703315 -1.7972815 20
1.6911907 -14.594221 -1.7181013 68
2.0738051 -17.896011 -1.680787 9
2.3524106 -20.300253 -1.429031 9
2.9337428 -25.316891 -1.1885297 9
3.8376729 -33.117405 -0.77403367 16
3.7625036 -32.468727 0 19
3.1686001 -27.343605 0.63908607 14
5.0832834 -43.866467 2.0593605 26
0.61931247 -5.3443904 -1.6788222 8
3.673876 -31.703913 2.2317886 48
0.67939943 -5.8629141 -1.6924134 8
3.7742007 -32.569668 3.0589316 15
0.74765772 -6.451952 -1.7003301 9
3.5666838 -30.778889 3.6234374 37
0.833125 -7.189497 -1.7148999 14
3.6023219 -31.08643 4.3981485 26
0.9381426 -8.0957518 -1.7323204 11
3.5173588 -30.353235 5.0202241 9
1.0728327 -9.2580681 -1.7559825 10
2.8191836 -24.328297 4.6143608 15
1.2164443 -10.72652 -1.7735986 14
1.4361172 -12.66358 -1.791158 26
1.6452291 -14.507514 -1.7074153 14
2.0455542 -18.037552 -1.6936059 18
2.3983486 -21.14847 -1.488324 4
3.6330094 -32.035622 -1.5035268 15
4.0217004 -35.463074 -0.82862544 20
3.8127432 -33.620502 0 21
4.113625 -36.273659 0.84756547 33
4.9546971 -43.69017 2.0505095 27
0.6060369 -5.3439908 -1.6782265 8
3.5952749 -31.702881 2.231091 16
0.66463852 -5.8607359 -1.6913109 8
3.4937778 -30.807886 2.8926551 11
0.73101854 -6.4460702 -1.6983042 9
3.4856474 -30.736193 3.6173975 12
0.8133626 -7.172174 -1.7102888 14
3.4665434 -30.567736 4.3235521 24
0.91791743 -8.0941315 -1.7314887 13
3.4360662 -30.298988 5.0098486 28
1.0488794 -9.2489443 -1.7537607 10
3.3014452 -29.111912 5.5201249 9
1.1851178 -10.751867 -1.7771653 13
1.4143356 -12.831424 -1.8142606 16
1.6305484 -14.792992 -1.7404022 39
2.0421112 -18.526855 -1.7389373 29
2.3369238 -21.201513 -1.491533 9
3.5411024 -32.126308 -1.5072535 15
3.9069827 -35.445721 -0.82792914 20
4.7339048 -42.947891 0 32
3.590656 -32.575878 0.76089633 24
4.0399384 -36.651951 1.7195808 23
0.5886175 -5.3401752 -1.6764392 8
3.4753296 -31.529591 2.2181165 15
0.64538038 -5.8551507 -1.6891057 10
4.0224786 -36.493549 3.4252975 22
0.70949179 -6.4367957 -1.6952652 9
3.3557692 -30.444891 3.5818555 11
0.78954691 -7.1630878 -1.707522 14
3.4097686 -30.934795 4.3739324 13
0.89141244 -8.0872536 -1.7294097 11
3.3536177 -30.425371 5.0289788 19
1.0196019 -9.2502403 -1.7533904 8
3.2190137 -29.204191 5.5356774 9
1.154246 -10.747285 -1.7758683 13
1.3772298 -12.823507 -1.8125906 20
1.5654751 -14.576275 -1.7143843 14
1.9510278 -18.166191 -1.7045671 18
2.3203199 -21.6047 -1.5194355 5
3.4532967 -32.15395 -1.5080919 15
3.8968072 -36.283512 -0.84724051 22
4.6090436 -42.915211 0 32
3.9066288 -36.374962 0.8493759 33
3.5603924 -33.151123 1.5548618 16
0.57349902 -5.3398995 -1.6758435 8
3.3885489 -31.551075 2.2189534 15
0.62779576 -5.8454609 -1.6857982 8
3.291549 -30.6479 2.8757489 11
0.69048148 -6.4291334 -1.6927327 9
3.2815583 -30.554874 3.5937028 23
0.76891768 -7.1594596 -1.7061387 14
3.299895 -30.725613 4.3430362 37
0.8677811 -8.0799856 -1.7273306 11
3.2916136 -30.648502 5.064321 10
0.99061888 -9.2237387 -1.7478359 8
3.4251907 -31.89225 6.043365 16
1.1203033 -10.731035 -1.7726259 14
1.3371184 -12.807838 -1.8098072 24
1.5911103 -15.240748 -1.791973 48
1.8987722 -18.187744 -1.7060535 18
3.3446007 -32.036884 -1.5021293 15
3.8231809 -36.621056 -0.85485363 22
3.8323102 -36.7085 0 24
3.2977185 -31.587814 1.4810736 13
0.55666119 -5.3320832 -1.6728647 10
3.2833171 -31.449867 2.2111406 31
0.60925102 -5.835825 -1.6824905 7
3.1768198 -30.429762 2.8543835 22
0.67039788 -6.4215317 -1.6902001 9
3.1879959 -30.536816 3.5904505 35
0.74726719 -7.1578388 -1.7052165 14
3.217557 -30.819969 4.3550053 38
0.84238106 -8.0689039 -1.7244197 8
3.1957433 -30.611025 5.0565391 30
0.96406293 -9.234457 -1.7493172 8
3.713805 -35.573376 6.7387958 13
1.0861444 -10.692887 -1.7658167 16
1.3107545 -12.904131 -1.8228894 14
1.5676155 -15.432879 -1.8140417 15
1.8445549 -18.159296 -1.702895 18
3.255933 -32.054047 -1.502502 15
3.6960495 -36.386909 -0.8491438 22
3.6364117 -35.799786 0 23
4.2773709 -42.109913 0.98269868 39
3.20122 -31.515408 1.4772538 26
0.54003286 -5.3165216 -1.6675029 7
3.2067721 -31.570066 2.2189534 31
0.59256375 -5.8336782 -1.681388 7
3.0823748 -30.3454 2.8456516 21
0.65168124 -6.415679 -1.6881741 9
3.1045172 -30.563387 3.5925415 11
0.72570282 -7.1444077 -1.7015275 14
3.1088641 -30.60618 4.3235521 49
0.81885701 -8.0614929 -1.7223406 9
3.1036689 -30.555035 5.0458393 19
0.93727905 -9.2273359 -1.7474656 8
3.4301353 -33.769035 6.3951535 21
1.0577055 -10.729452 -1.7713289 9
1.2728509 -12.911905 -1.823446 12
1.4974593 -15.190352 -1.785004 41
1.8139163 -18.400518 -1.7250035 38
2.2176237 -22.49576 -1.5806818 16
3.3918931 -34.407646 -1.6123458 19
3.620826 -36.729961 0 24
3.5757155 -36.272358 0.84621918 33
3.101428 -31.461143 1.4742724 13
0.52444375 -5.3200011 -1.6680987 8
3.1056521 -31.503992 2.2136519 15
0.57430965 -5.8258448 -1.6786315 7
3.0966489 -31.412664 2.9448605 12
0.63093477 -6.4002552 -1.6836156 9
3.0007651 -30.440012 3.576977 23
0.70373857 -7.1387825 -1.6996831 14
3.0079384 -30.512777 4.3090777 36
0.79282397 -8.0424719 -1.7177665 8
0.90816206 -9.212472 -1.7441328 8
3.1274714 -31.72533 6.0063343 15
1.024174 -10.714863 -1.7684108 9
1.2341558 -12.911683 -1.8228894 12
1.460696 -15.281737 -1.7952253 41
1.7485093 -18.292828 -1.7144138 38
2.2243314 -23.270855 -1.6346732 11
3.3825488 -35.388073 -1.6578112 21
3.5131559 -36.754482 0 24
3.450793 -36.102043 1.6912582 22
0.50829238 -5.3177323 -1.6669072 8
2.997731 -31.362127 2.2030489 30
0.55628878 -5.8198686 -1.6764265 6
2.9833417 -31.21159 2.9251673 37
0.61175692 -6.4001737 -1.6831092 11
2.874517 -30.073069 3.53284 33
0.68070132 -7.1214666 -1.6950718 10
2.8585904 -29.906446 4.2222338 33
0.7689566 -8.0447893 -1.7177665 9
2.8821087 -30.152494 4.9764519 18
0.88044858 -9.2112141 -1.7433922 10
3.0297678 -31.697296 5.9992986 15
0.99297416 -10.703924 -1.7661409 9
1.1982799 -12.91705 -1.8231677 14
1.435083 -15.469708 -1.8168293 19
1.7244619 -18.589115 -1.7417239 19
2.0448971 -22.043297 -1.5480357 15
3.5453985 -38.218193 -1.7899219 25
2.4890888 -26.831533 -0.62562382 8
3.4169767 -36.833847 0 24
3.4107003 -36.76619 0.85726756 34
3.9862669 -42.970604 2.0124974 27
0.49167785 -5.3001204 -1.6609497 7
2.9221241 -31.499506 2.2121174 15
0.53932506 -5.8137412 -1.6742214 6
2.9024303 -31.287214 2.9314837 37
0.59441912 -6.4076362 -1.6846286 9
2.8142011 -30.336134 3.5628068 34
0.65919507 -7.1058993 -1.6909218 10
2.7745211 -29.908394 4.2213988 11
0.74450195 -8.0254784 -1.7131926 8
2.7933438 -30.111298 4.9683456 17
0.85290879 -9.194067 -1.7396892 12
3.0196745 -32.551067 6.1592703 18
0.96201771 -10.694862 -1.7641957 9
1.162558 -12.924293 -1.8237245 14
1.4029107 -15.596321 -1.8312321 15
1.6661208 -18.522459 -1.7350358 14
2.0317705 -22.587427 -1.5858437 10
3.9910402 -44.368858 -1.034273 25
3.3267913 -36.984325 1.7316926 24
0.47790113 -5.3128824 -1.6645242 8
3.2661686 -36.310375 2.54932 23
0.52412099 -5.826714 -1.6775291 7
2.8284268 -31.443951 2.9454179 25
0.57617617 -6.405417 -1.6836156 9
2.7262702 -30.308264 3.5586255 34
0.63812816 -7.0941448 -1.687694 10
2.6996825 -30.012684 4.2350378 34
0.72208714 -8.0275269 -1.7131926 11
2.7244496 -30.288023 4.9962301 9
0.8254692 -9.176837 -1.7359861 12
3.0483198 -33.888523 6.4107065 21
0.9270485 -10.682102 -1.7616016 9
1.1200652 -12.906176 -1.8206626 12
1.3588865 -15.658042 -1.8379687 15
1.6234174 -18.706152 -1.7517563 14
3.4738281 -40.027882 -1.8736787 28
3.2003925 -36.877163 1.7261957 47
0.46104255 -5.3124552 -1.6639285 10
2.8853951 -33.247543 2.3336332 18
0.50464946 -5.8149242 -1.6736702 8
2.7328987 -31.490374 2.9489477 25
0.55471158 -6.3917751 -1.6795636 9
2.5901625 -29.845667 3.5033374 42
0.61667907 -7.1058087 -1.6899996 14
2.627641 -30.277519 4.2712226 47
0.69517255 -8.0102644 -1.7090342 8
2.6233101 -30.227617 4.9848819 18
0.79561532 -9.1676369 -1.7337643 8
3.0791433 -35.480045 6.7099123 12
0.89452678 -10.674973 -1.7599806 9
1.0789561 -12.875891 -1.8159307 12
1.3134185 -15.673882 -1.8393625 15
1.6063211 -19.169281 -1.7946724 30
1.9334059 -23.072599 -1.6190478 5
3.3715661 -40.235107 -1.8829023 27
3.7065771 -44.233013 -1.0305593 25
5.3740358 -64.131889 1.4941717 63
3.0914643 -36.892467 1.726475 24
0.44480026 -5.3080926 -1.6621412 8
2.7794063 -33.168476 2.3274944 37
0.48691273 -5.8106484 -1.6720164 11
2.9259655 -34.917461 3.2690532 19
0.53493696 -6.3837528 -1.677031 9
2.5108886 -29.964079 3.5163465 32
0.59396839 -7.0882139 -1.6853884 14
2.5366385 -30.27137 4.2692742 11
0.66993284 -7.9947472 -1.7052919 8
2.5334485 -30.233301 4.9845581 27
0.76709855 -9.1542892 -1.7308019 8
0.86402142 -10.645805 -1.7547926 9
1.0394747 -12.807606 -1.8059103 15
1.2717359 -15.669348 -1.8384334 15
