# .PCD v0.7 - Point Cloud Data file format
VERSION 0.7
FIELDS x y z intensity
SIZE 4 4 4 4
TYPE F F F F
COUNT 1 1 1 1
WIDTH 1366
HEIGHT 1
VIEWPOINT 0 0 0 1 0 0 0
POINTS 1366
DATA ascii
-2.2544324 -6.4774909 -0.96391296 18
-2.4792659 -7.1234875 -0.88204843 32
-3.3637888 -9.6649208 -0.95474344 23
-3.4777186 -9.9922667 -0.73983717 6
-3.9499891 -11.349205 -0.5603987 42
-3.7593346 -10.801413 -0.26553151 25
-3.4079792 -9.7918901 0 16
-3.2894177 -9.4512358 0.23234007 27
-3.3372974 -9.5888052 0.473474 22
-3.3354094 -9.5833797 0.7095629 20
-3.354625 -9.6385908 0.95214248 13
-4.1136093 -11.819323 1.4634988 36
-1.6344128 -4.6960349 -1.1781579 31
-3.8819466 -11.153705 1.6597786 12
-1.810794 -5.2028179 -1.1709588 22
-4.0641475 -11.677208 2.0313702 17
-1.9691203 -5.6577249 -1.1286873 15
-4.0293317 -11.577175 2.3095875 23
-2.1074133 -6.0077453 -1.0460017 15
-2.2243629 -6.3411407 -0.94442874 12
-2.4927189 -7.1061611 -0.88065463 20
-3.3788252 -9.6322441 -0.95232821 23
-3.3938169 -9.6749821 -0.71695709 6
-3.9049654 -11.132148 -0.55015033 16
-3.4461927 -9.8242931 -0.24171723 7
-3.4193168 -9.7476759 0 14
-3.3230908 -9.4733582 0.23308283 21
-3.3600557 -9.5787363 0.47338083 27
-3.3740048 -9.6185026 0.71277165 9
-3.3676198 -9.6002998 0.94916987 5
-4.1188054 -11.741755 1.4551361 100
-1.644594 -4.6883545 -1.1772357 31
-3.9773679 -11.33855 1.6887265 9
-1.8170258 -5.1799178 -1.1668005 22
-4.0567379 -11.564816 2.0135369 17
-1.949109 -5.5564561 -1.1094314 9
-4.0543551 -11.558022 2.3077359 33
-2.1161141 -5.9691014 -1.0404896 20
-2.1957462 -6.1937261 -0.92355275 12
-2.5262265 -7.1259403 -0.88413918 15
-3.4047601 -9.6040945 -0.95065612 28
-3.837868 -10.825798 -0.80317605 16
-3.9245036 -11.070179 -0.547728 16
-3.5535789 -10.02388 -0.24691646 13
-3.4629831 -9.7683287 0 8
-3.3858881 -9.5508604 0.23526464 15
-3.4011476 -9.5939045 0.47468516 17
-3.4218822 -9.6523924 0.71612 11
-3.4280488 -9.6697865 0.95715863 8
-3.3625495 -9.4850273 1.176839 5
-1.6614327 -4.6865435 -1.1781579 28
-4.0242114 -11.351433 1.6926234 45
-1.8191589 -5.1314549 -1.1572366 25
-4.064733 -11.465735 1.9986219 17
-1.9274647 -5.4369621 -1.0868429 15
-4.0939741 -11.548219 2.3084764 35
-2.1184483 -5.9263735 -1.0340047 17
-2.1886213 -6.122683 -0.91381067 13
-2.529495 -7.0762796 -0.87879622 30
-3.4238603 -9.5782719 -0.94898409 28
-3.9406955 -11.024122 -0.5459578 19
-3.5555811 -9.9467621 -0.24524529 13
-3.5168202 -9.8383284 0 19
-3.4519353 -9.6568117 0.23809636 15
-3.4255807 -9.5830851 0.474592 16
-3.4713173 -9.7110329 0.72114241 13
-3.4560339 -9.6682777 0.95790172 5
-3.4067614 -9.5304375 1.1835757 8
-1.6730417 -4.6803451 -1.1776968 24
-4.0432496 -11.311017 1.6881698 11
-1.8325871 -5.1266747 -1.1572366 33
-4.0475717 -11.323109 1.9756008 44
-1.9330921 -5.4078379 -1.082029 20
-4.1241941 -11.53746 2.3084764 38
-2.1159282 -5.8643699 -1.0242774 17
-2.1919897 -6.0751767 -0.90768701 21
-2.5457599 -7.0556636 -0.87717015 35
-3.4434774 -9.5437193 -0.94656891 28
-3.9550791 -10.961641 -0.54344231 19
-3.6427588 -10.096034 -0.24919111 7
-3.5229161 -9.7638855 0 14
-3.4751432 -9.6314821 0.23772497 31
-3.4777305 -9.6386518 0.47785282 16
-3.4723523 -9.6237469 0.71542239 15
-3.4880841 -9.6673479 0.95883065 5
-4.1489954 -11.499087 1.4295828 100
-1.6737108 -4.6387486 -1.1684744 13
-4.111073 -11.393983 1.7023655 11
-1.8438061 -5.1101737 -1.1547416 49
-4.0764608 -11.298056 1.9733311 31
-1.9477944 -5.3983808 -1.0812883 30
-4.1530714 -11.510383 2.3055141 19
-2.1238649 -5.8321042 -1.0197382 17
-2.2072949 -6.061202 -0.90657365 16
-2.5666838 -7.048079 -0.87717015 37
-3.4656472 -9.5166206 -0.94489688 30
-3.6005659 -9.8871059 -0.73579127 11
-3.5069976 -9.6301689 -0.47794598 8
-3.6330163 -9.9762144 -0.24649867 15
-3.5587149 -9.7721834 0 17
-3.5454407 -9.7357321 0.24055669 21
-3.5165684 -9.6564493 0.47925031 20
-3.5213726 -9.6696424 0.71960783 15
-4.0911808 -11.234327 1.1154464 9
-4.1932921 -11.514725 1.4330673 21
-4.1130095 -11.29427 1.6892833 22
-1.8449025 -5.0660777 -1.1460093 19
-4.1099658 -11.285911 1.9733311 25
-1.9570781 -5.3741102 -1.0775852 28
-4.1663566 -11.44076 2.2940345 16
-2.1289055 -5.7924333 -1.0139017 18
-2.2362013 -6.0843697 -0.91102719 15
-2.5944378 -7.0590773 -0.87949318 35
-3.489747 -9.49508 -0.94378215 30
-3.5748255 -9.7265654 -0.72463024 6
-3.5796647 -9.7397327 -0.48390868 8
-3.6522546 -9.9372387 -0.24580233 11
-3.6201217 -9.8498106 0 8
-3.5818996 -9.7458134 0.24106734 12
-3.5321105 -9.6103449 0.4774802 12
-4.4606171 -12.136673 0.90418345 11
-4.1244965 -11.222138 1.1154464 8
-4.3151546 -11.740891 1.4628021 15
-4.2578692 -11.585027 1.7346537 38
-1.8430548 -5.0146766 -1.1356138 12
-4.1236906 -11.219945 1.9639281 21
-1.9689471 -5.3572106 -1.0753634 33
-4.2084212 -11.450484 2.2984784 26
-2.1382124 -5.7679615 -1.0106593 23
-2.2614436 -6.1003857 -0.91436732 15
-2.6162112 -7.0573931 -0.88019007 37
-3.5086341 -9.4647589 -0.94173855 23
-3.6033595 -9.7202864 -0.72490925 24
-3.6353199 -9.8065023 -0.48772851 4
-3.6111851 -9.7413969 -0.24120659 20
-3.6462226 -9.8359127 0 8
-3.6459351 -9.8351374 0.24352768 12
-3.5804603 -9.658515 0.48036835 13
-3.5471871 -9.568759 0.71360874 9
-4.1592784 -11.219913 1.1163753 5
-4.2802567 -11.54626 1.4400364 11
-4.1325564 -11.147829 1.6709124 15
-1.8454909 -4.9783268 -1.1285448 16
-4.1495175 -11.193583 1.9613341 34
-1.9770675 -5.3332629 -1.0716604 23
-4.1939249 -11.313374 2.2732975 15
-2.1549387 -5.7575192 -1.010011 25
-2.2896223 -6.1173644 -0.91798586 13
-2.6495104 -7.0789056 -0.88390684 20
-3.5306723 -9.4331751 -0.93969488 30
-3.6569574 -9.7705812 -0.72951317 17
-3.6226904 -9.6790276 -0.48195219 8
-3.6298556 -9.6981716 -0.24041744 22
-3.6806097 -9.8337746 0 8
-3.6719084 -9.8105268 0.24320273 9
-3.7305374 -9.9671707 0.49629986 9
-4.5437465 -12.139886 0.90641558 14
-4.2391801 -11.326151 1.1282656 5
-4.3311315 -11.571825 1.4449148 13
-4.1488128 -11.084709 1.6633971 14
-1.8590642 -4.9670081 -1.1272973 23
-4.2240949 -11.285847 1.979816 21
-1.9765888 -5.2810078 -1.0624028 16
-4.1977539 -11.215469 2.2562637 16
-2.1686115 -5.7481647 -1.0093625 26
-2.1588194 -5.7222095 -0.85953313 32
-2.9471087 -7.8116646 -0.97636282 25
-3.5455163 -9.3978157 -0.93709391 30
-3.5895638 -9.5145693 -0.71109748 3
-3.6395559 -9.6470785 -0.48083419 8
-3.6665263 -9.7185669 -0.24116017 7
-3.7056365 -9.8222332 0 2
-3.6608799 -9.7036009 0.2407888 6
-3.7876487 -10.039617 0.50039923 4
-4.5635424 -12.096215 0.90404391 11
-4.256166 -11.281478 1.1249214 5
-4.1785178 -11.075663 1.6636753 14
-1.8679186 -4.9511418 -1.1248024 24
-4.1860542 -11.095638 1.9483645 23
-1.9904082 -5.275815 -1.0624028 23
-4.2229395 -11.193407 2.2540417 16
-2.1681039 -5.6955943 -1.0012563 20
-2.1497176 -5.6472936 -0.84923434 22
-2.9730997 -7.8103123 -0.97729206 10
-3.5705502 -9.3798103 -0.93635082 30
-3.6660306 -9.6306372 -0.4805547 8
-4.1057806 -10.785858 0.26794544 14
-4.6100583 -12.110591 0.90613663 20
-4.4430423 -11.671841 1.4604789 19
-4.1958599 -11.022495 1.6575518 8
-1.8359703 -4.823081 -1.0969422 16
-4.2533593 -11.173545 1.9642522 29
-1.991369 -5.2313128 -1.0546263 17
-4.2225695 -11.092661 2.2362673 15
-2.1637659 -5.6338658 -0.99152911 23
-2.1629133 -5.6316462 -0.84784263 32
-2.9998209 -7.810729 -0.97845358 7
-3.5897968 -9.3468676 -0.93412143 21
-3.6609814 -9.5322132 -0.71402723 39
-3.6481433 -9.498786 -0.23623949 5
-4.348978 -11.323572 0 21
-4.1277285 -10.747498 0.26729554 16
-4.1866746 -10.900978 0.54456031 15
-4.5943398 -11.962429 1.1955193 6
-4.3829293 -11.411972 1.4295828 37
-4.1255832 -10.741913 1.6171916 8
-1.8145012 -4.7244744 -1.0757352 22
-4.2879081 -11.164562 1.9649009 38
-1.9815136 -5.1593299 -1.0412954 13
-4.2300949 -11.014032 2.2229362 31
-2.168087 -5.5983558 -0.9863413 25
-2.1786318 -5.6255841 -0.84784263 32
-3.6007824 -9.2978096 -0.93021995 33
-3.6616483 -9.4549761 -0.70900482 27
-3.6824772 -9.5087595 -0.47552365 22
-4.3928618 -11.343089 0 15
-4.1432838 -10.698637 0.26636711 13
-4.2077212 -10.865026 0.54334915 17
-4.2964125 -11.094042 1.3912531 65
-4.1648631 -10.754358 1.6208102 8
-1.8262748 -4.7157407 -1.0749035 22
-4.2299795 -10.9225 1.9243708 23
-1.949778 -5.034646 -1.0172257 11
-4.2587066 -10.996678 2.2218254 19
-2.1420763 -5.4856553 -0.96753532 14
-2.1892896 -5.606564 -0.84589416 30
-3.5723069 -9.1483402 -1.1484982 32
-3.6325269 -9.3025589 -0.93170619 30
-3.6844079 -9.435421 -0.70830721 26
-3.7053826 -9.4891348 -0.47505784 24
-3.664773 -9.3851376 -0.2339184 5
-4.4427071 -11.377354 0 28
-4.2662354 -10.925426 0.27230906 28
-4.2358651 -10.847651 0.54306966 19
-4.5937161 -11.764073 1.1782415 10
-4.2789645 -10.958025 1.375689 10
-1.8437057 -4.7215562 -1.0773984 20
-4.3903952 -11.243387 1.9830582 27
-1.9481015 -4.988904 -1.009079 11
-4.1950312 -10.743079 2.1729453 23
-2.1339729 -5.4146347 -0.95618689 23
-2.1996307 -5.5812321 -0.84311068 23
-3.6206958 -9.1869707 -1.1547703 32
-3.6872895 -9.3559427 -0.93820864 35
-3.7089119 -9.4108057 -0.70733064 30
-3.7476289 -9.5090446 -0.47664165 34
-4.2638817 -10.818958 -0.269988 12
-4.5304952 -11.49545 0 10
-4.3188663 -10.958473 0.2734696 14
-4.2750516 -10.8473 0.5437218 19
-4.4192381 -11.213152 0.84279776 10
-4.6591277 -11.821836 1.185487 66
-4.3315787 -10.990729 1.3814965 9
-4.4217734 -11.219584 1.6948501 18
-1.8613991 -4.7230201 -1.0790617 20
-4.4068818 -11.1818 1.974628 23
-1.9270123 -4.8895035 -0.99019343 15
-4.2136278 -10.691446 2.1651688 19
-2.1665754 -5.4526725 -0.96396863 16
-2.2115517 -5.565865 -0.84171897 23
-3.6536727 -9.1952858 -1.1570934 47
-3.7192852 -9.3604145 -0.93969488 30
-3.8110552 -9.5913744 -0.48130003 30
-4.3464985 -10.938937 -0.2732839 17
-4.150485 -10.445625 0 9
-4.2564235 -10.712243 0.2676205 13
-4.4424305 -11.180372 0.84126306 10
-4.7568321 -11.971634 1.201836 13
-4.3624024 -10.978963 1.6603352 12
-1.8760263 -4.7214403 -1.0798935 24
-4.4533944 -11.207965 1.9814371 25
-1.9261441 -4.8475733 -0.98278737 26
-4.2826591 -10.778271 2.1851652 23
-2.1695285 -5.4132457 -0.95813233 14
-2.2251086 -5.5519252 -0.84060562 21
-3.6772437 -9.1751852 -1.1559318 37
-3.7625988 -9.3881559 -0.94359642 30
-3.8417253 -9.5855865 -0.48157951 14
-4.4220772 -11.033638 -0.27597636 8
-4.1561618 -10.370146 0 6
-4.187027 -10.447158 0.26130715 10
-4.4571152 -11.121061 0.55872166 10
-4.3745112 -10.914955 1.0970539 2
-4.5093532 -11.251402 1.4175032 14
-4.405273 -10.991709 1.664232 8
-1.8878431 -4.7104053 -1.0786459 24
-4.5284781 -11.299121 1.9999188 38
-1.9354002 -4.8290663 -0.98019522 32
-4.2882967 -10.699839 2.1718342 17
-2.1750262 -5.3833785 -0.95391721 19
-2.2420881 -5.5493627 -0.84116226 18
-3.7110379 -9.1851406 -1.1584872 30
-3.8141642 -9.4403877 -0.94991302 19
-3.2720656 -8.0986462 -0.61078769 4
-3.8482726 -9.5248089 -0.47906399 18
-4.4101791 -10.915576 -0.27333036 8
-4.2116909 -10.424301 0.26102862 13
-4.5547619 -11.273431 0.56701356 13
-4.5254359 -11.200846 0.84475088 10
-4.4064674 -10.906389 1.0974253 5
-4.5385242 -11.233241 1.4168063 19
-4.4270482 -10.957329 1.660892 8
-1.8987916 -4.6996737 -1.0773984 23
-4.5518818 -11.266302 1.9963521 29
-1.9503509 -4.8272877 -0.98093587 35
-4.357182 -10.784404 2.1914604 16
-2.1783288 -5.3458319 -0.94840509 19
-2.2637746 -5.5555243 -0.84311068 17
-3.7495177 -9.201683 -1.1619717 26
-3.7888041 -9.2980957 -0.93672234 30
-3.3028555 -8.1055307 -0.61204326 5
-3.8742537 -9.5077982 -0.47878453 26
-3.9113719 -9.5988894 -0.24064954 7
-4.2014809 -10.310845 0 6
-4.2161937 -10.346951 0.25940385 33
-4.3951936 -10.786235 0.54316282 15
-4.5202522 -11.093141 0.8376357 10
-8.5462246 -20.973272 2.11292 10
-4.1145744 -10.097569 1.2751025 4
-4.4528127 -10.927638 1.6583868 12
-1.9031301 -4.6704674 -1.0719928 20
-4.6560378 -11.426373 2.0271552 76
-1.9609563 -4.8123789 -0.97908431 35
-4.3995438 -10.79691 2.1966445 15
-2.1716759 -5.2845831 -0.93867791 19
-2.2794952 -5.5469518 -0.84283239 15
-3.8492877 -9.3669043 -1.1842725 31
-3.7989657 -9.2444506 -0.93244928 26
-3.3299239 -8.1030779 -0.61260134 2
-3.3465812 -8.1436119 -0.41058636 3
-4.4520741 -10.833733 -0.2719377 2
-4.1822748 -10.177198 0.25545803 19
-4.3907266 -10.684449 0.53869081 9
-5.007762 -12.18595 1.2291461 7
-4.4814515 -10.905219 1.6569951 8
-1.9117739 -4.6521344 -1.069082 20
-4.6239066 -11.251872 1.9986219 17
-1.973732 -4.8029041 -0.97834378 35
-4.3986883 -10.703822 2.1803513 15
-2.1864252 -5.2784977 -0.93867791 15
-2.2927029 -5.5350752 -0.84199733 13
-3.8305798 -9.247839 -1.1705668 36
-3.830101 -9.2466831 -0.93374979 19
-3.3066182 -7.9828835 -0.40294668 3
-4.8182163 -11.632205 -0.29231676 14
-4.1816025 -10.095284 0.253694 19
-4.4320149 -10.699832 0.5400883 4
-4.6741619 -11.284427 0.85409826 10
-4.1506181 -10.02048 1.2683656 9
-1.9210148 -4.6377406 -1.0670029 20
-4.6583314 -11.246208 1.9999188 21
-1.9811196 -4.7828465 -0.97538126 27
-4.4578953 -10.762313 2.194793 16
-2.1859498 -5.2359476 -0.9321931 13
-2.3058615 -5.5231686 -0.84116226 15
-3.7821543 -9.0592928 -1.1480336 45
-3.8536057 -9.2304392 -0.93319249 23
-3.3512995 -8.0272789 -0.60827643 5
-3.9569619 -9.4780054 -0.47897086 6
-3.7930362 -9.0853586 -0.22857992 7
-4.2779469 -10.246853 0 9
-4.1789646 -10.009763 0.25183713 13
-4.483428 -10.739036 0.54269695 4
-4.7371693 -11.346816 0.85981828 10
-4.490375 -10.755675 1.087393 5
-4.2199106 -10.10784 1.28091 9
-1.9271748 -4.6161103 -1.0632606 18
-4.5057173 -10.792425 1.9214524 8
-1.9884104 -4.7627864 -0.9724189 23
-4.4841456 -10.740754 2.1929417 13
-2.1970263 -5.2163224 -0.9299233 18
-2.3201268 -5.5085959 -0.84004891 17
-3.8291023 -9.0913029 -1.1536088 40
-3.8686724 -9.1852531 -0.92984831 23
-3.396637 -8.0645161 -0.61190379 1
-4.6752801 -11.100354 -0.27964368 9
-4.3124471 -10.238893 0 9
-4.1677051 -9.895237 0.24928395 13
-4.5008588 -10.686232 0.54074049 8
-4.6876068 -11.129622 0.84447187 7
-4.3927402 -10.429529 1.0558097 5
-5.0830612 -12.068534 1.8404253 27
-1.9348333 -4.5938067 -1.0595181 18
-2.0003121 -4.7492709 -0.97093767 21
-4.4675159 -10.607066 2.1685016 15
-2.2138979 -5.2156167 -0.93089604 22
-2.3339534 -5.4984488 -0.8394922 20
-3.8536994 -9.0787458 -1.1533765 32
-3.8888612 -9.161582 -0.92854786 38
-4.7703323 -11.238197 -0.56934267 25
-4.3715005 -10.298609 0 14
-4.2093849 -9.9166889 0.25011957 13
-4.5213165 -10.651553 0.53962249 6
-4.4397445 -10.459382 1.0600829 6
-4.3442407 -10.234389 1.3001909 4
-5.0292974 -11.848282 1.808972 12
-1.9346598 -4.5577726 -1.0524491 12
-4.6159506 -10.874497 1.9409069 10
-2.0189426 -4.7563305 -0.97352982 23
-4.5040312 -10.610832 2.1718342 13
-2.2245731 -5.2003417 -0.92927486 19
-2.3454039 -5.4828057 -0.83810049 22
-3.90973 -9.1397009 -0.92743313 33
-3.9116504 -9.1441908 -0.695472 34
-4.656333 -10.88502 -0.5521068 26
-4.4096813 -10.308428 0 19
-4.2637978 -9.9673986 0.2516979 13
-4.7693105 -11.149126 0.84795964 10
-4.4736338 -10.457929 1.0611976 7
-5.0413327 -11.785028 1.8014567 49
-1.9235278 -4.4965944 -1.0395585 15
-4.685885 -10.954104 1.9574432 19
-2.0306706 -4.7470598 -0.97278917 21
-4.5375094 -10.607249 2.1736858 12
-2.2432446 -5.1987634 -0.9302476 16
-2.3649704 -5.4808655 -0.83893555 21
-3.9431572 -9.1383438 -0.92854786 35
-3.9435201 -9.139185 -0.69603008 27
-4.6477637 -10.771284 -0.54707581 9
-4.0146651 -9.3040648 -0.23526464 5
-4.3762765 -10.142107 0 6
-4.2808309 -9.9209089 0.2508623 13
-4.5852346 -10.62637 0.53971565 100
-4.7750659 -11.066309 0.84279776 5
-4.511199 -10.454792 1.0623122 6
-4.4631338 -10.3434 1.3173814 6
-5.0995164 -11.818229 1.808972 12
-4.6123738 -10.689266 1.9126979 10
-2.0440164 -4.7370481 -0.97204858 17
-4.5902767 -10.638056 2.1829433 13
-2.2601149 -5.1979084 -0.93122035 15
-2.3850055 -5.4851375 -0.84060562 15
-4.1133776 -9.4601202 -1.2063413 28
-3.9686615 -9.1272974 -0.92854786 33
-4.6290269 -10.646033 -0.26952377 8
-4.0066304 -9.2146196 0 2
-4.3101134 -9.9125824 0.25095513 13
-4.5376177 -10.435807 0.53067845 11
-4.7812886 -10.996211 0.83847278 7
-4.3676414 -10.044888 1.28091 15
-4.7968621 -11.032028 1.690675 6
-4.6406326 -10.672725 1.9120495 17
-2.0580206 -4.7331233 -0.9724189 12
-4.772006 -10.974863 2.2547824 20
-2.27315 -5.1857572 -0.9302476 15
-3.6758504 -8.3857489 -1.2867945 10
-3.9965241 -9.1173058 -0.92873365 38
-3.5235136 -8.0382223 -0.61371744 5
-4.5854049 -10.460724 -0.53263497 20
-4.657382 -10.624927 -0.26933807 8
-4.7092223 -10.74319 0 10
-4.3932872 -10.022445 0.25406536 22
-4.5332708 -10.34179 0.52657914 11
-4.8443308 -11.051414 0.84377432 15
-5.2836623 -12.053665 1.2278457 14
-4.3982229 -10.033704 1.2811424 13
-4.8025389 -10.956074 1.6812112 9
-4.6730704 -10.660716 1.9123738 12
-2.0681095 -4.7179961 -0.97056735 10
-4.9773502 -11.354872 2.3358788 20
-2.2875159 -5.1815939 -0.93057185 16
-3.6977921 -8.3760977 -1.2867945 24
-3.9729302 -8.9993296 -0.91777235 23
-4.003602 -9.0688057 -0.46229398 7
-4.7021408 -10.65111 -0.27031294 8
-4.7510643 -10.761929 0 10
-4.3621783 -9.8810396 0.25076947 13
-4.5732398 -10.359128 0.52806979 24
-4.9022546 -11.1044 0.84879673 10
-4.8384051 -10.95977 1.6837163 9
-4.6650977 -10.567202 1.8977829 8
-2.0042531 -4.5399575 -0.93501812 26
-4.8292575 -10.93905 2.2529309 5
-2.2957563 -5.1563525 -0.92732942 18
-3.7313392 -8.380724 -1.2892997 30
-3.5186982 -7.9031243 -1.0116726 5
-3.9671655 -8.9103975 -0.90996951 35
-4.0280104 -9.0470581 -0.46182814 7
-4.7144351 -10.588793 -0.26910597 17
-4.0974655 -9.2030573 0 6
-4.4224768 -9.9330444 0.25244063 13
-4.6252642 -10.388512 0.5303058 15
-4.6328855 -10.405629 1.3320162 10
-4.8792572 -10.958989 1.685943 9
-4.7400141 -10.646244 1.9146434 8
-2.0025179 -4.4977283 -0.92761207 35
-2.2972217 -5.1211109 -0.92214155 15
-3.7555368 -8.3720779 -1.2895781 28
-3.5480707 -7.9095817 -1.0137634 10
-3.9496489 -8.8048048 -0.90030873 19
-4.6436248 -10.35186 -0.52909464 29
-4.7227073 -10.528155 -0.26789901 17
-4.9608474 -11.059032 0.28140768 18
-4.6460776 -10.357327 0.52937412 11
-4.7769823 -10.649149 0.81615078 21
-5.0295677 -11.212228 1.1464725 15
-4.670867 -10.41259 1.3345716 12
-2.0126562 -4.4867396 -0.92650115 40
-5.143455 -11.466113 2.3677251 15
-2.3116722 -5.1102719 -0.92149311 19
-3.8014109 -8.4035463 -1.2962583 25
-3.917377 -8.6599054 -0.88674647 28
-3.896847 -8.6145201 -0.66115189 27
-4.6818871 -10.349961 -0.52974677 33
-4.9040937 -10.841179 -0.27625489 4
-4.8196878 -10.654588 0 7
-4.6835341 -10.353601 0.52993309 11
-4.8844209 -10.797689 0.82870686 14
-5.0598431 -11.185485 1.1453577 11
-4.815722 -10.645821 1.3663969 6
-5.0903153 -11.252848 1.735767 9
-5.0804734 -11.231091 2.0252097 10
-2.0259318 -4.4786034 -0.92613083 37
-5.1535301 -11.392593 2.3558755 13
-2.3308444 -5.1145716 -0.92343849 19
-3.8503246 -8.4487667 -1.3048871 19
-3.5586987 -7.8088517 -1.0035421 5
-3.9522808 -8.6724892 -0.88916171 33
-3.9167514 -8.5945263 -0.66045427 31
-4.7372837 -10.39502 -0.53272814 29
-4.7465787 -10.415417 0 2
-5.4218974 -11.897268 0.30355081 46
-4.7579961 -10.44047 0.53505731 2
-4.9186921 -10.793085 0.82940447 21
-5.1150079 -11.223861 1.1507454 15
-5.1759272 -11.357535 1.754138 9
-2.0416911 -4.480082 -0.92761207 27
-5.1657634 -11.335234 2.3469882 6
-2.3492351 -5.1170111 -0.92505974 14
-3.875555 -8.4415808 -1.3054438 24
-3.56723 -7.7699995 -0.9998253 2
-3.9939311 -8.6994228 -0.89306313 28
-3.9415686 -8.5853691 -0.66059381 31
-4.8796573 -10.628676 -0.54539877 19
-4.7556181 -10.3585 0 7
-4.7359834 -10.315732 0.26353538 10
-4.6999149 -10.237169 0.7876901 14
-4.9244909 -10.726332 1.1011411 6
-4.6853046 -10.205345 1.3131999 4
-5.2406764 -11.415034 1.7652718 19
-5.2740445 -11.487716 2.0767639 8
-2.0779746 -4.5261621 -0.93835092 13
-5.1604953 -11.240387 2.3303244 4
-2.327893 -5.0334067 -0.91111737 25
-3.8957889 -8.4235353 -1.3043305 25
-3.7900069 -8.1948118 -0.84234416 40
-3.968879 -8.5815725 -0.66115189 31
-5.0551748 -10.930378 -0.27959725 56
-4.8088732 -10.39782 0 9
-4.0840912 -8.8306856 0.22588748 8
-4.850616 -10.488078 0.53887713 6
-4.6907978 -10.142516 0.78141201 11
-4.948575 -10.699886 1.0998405 7
-5.0681744 -10.958486 1.4119279 14
-5.2284708 -11.305081 1.7505195 9
-5.0020704 -10.815555 1.9577675 8
-2.1013317 -4.5435324 -0.94316483 17
-8.9712915 -19.397867 4.0266881 3
-2.2894812 -4.9098072 -0.89004171 9
-3.9121892 -8.3897152 -1.3009902 21
-3.9348106 -8.4382267 -1.0887967 15
-4.016871 -8.6142063 -0.88674647 23
-3.9899175 -8.5564041 -0.66017526 30
-5.1334605 -11.008739 -0.56645453 17
-4.8951368 -10.497653 -0.2689203 8
-5.2320151 -11.22009 0 16
-4.9804826 -10.680677 0.27360886 10
-4.9029613 -10.514432 0.54101998 5
-4.720109 -10.122305 0.78099346 9
-4.7322159 -10.148268 1.0446627 7
-5.1109724 -10.960513 1.414251 27
-5.5284572 -11.855812 1.8384769 10
-5.0552077 -10.840926 1.9652251 4
-2.1106117 -4.5262208 -0.940943 15
-2.3023431 -4.9016089 -0.88971746 5
-4.1040049 -8.7372837 -1.3566594 39
-3.9363997 -8.3804588 -1.0827569 35
-4.0197439 -8.5578957 -0.88210189 21
-3.6626294 -7.7976112 -0.60241693 23
-5.3017783 -11.287303 -0.58154756 47
-4.8551836 -10.336517 0 7
-5.2967596 -11.276618 0.28925297 11
-4.9688253 -10.578457 0.54502618 11
-4.7542934 -10.121727 0.78197008 9
-4.7673078 -10.149433 1.046149 12
-5.1229782 -10.906643 1.4091403 13
-5.7459431 -12.232914 1.8994347 18
-2.1274202 -4.5292039 -0.9427945 26
-5.4113011 -11.520473 2.3980901 11
-2.3143523 -4.887217 -0.88842052 3
-4.0423484 -8.5362253 -0.88117296 23
-4.0372047 -8.5253639 -0.65961719 30
-5.0908403 -10.750325 -0.27616206 21
-3.4076476 -7.1959286 0 2
-5.3569775 -11.312327 0.29059917 11
-4.8595037 -10.261812 0.7939682 11
-4.7889433 -10.11281 1.0439197 13
-5.1419139 -10.858178 1.404959 3
-5.4927855 -11.599113 2.1085396 19
-2.1391156 -4.5171695 -0.94168365 27
-5.6855211 -12.006113 2.5028863 17
-3.9940226 -8.3774042 -1.3043305 15
-3.9846032 -8.3576469 -1.0827569 52
-4.0526853 -8.5004482 -0.87857199 19
-4.0560765 -8.5075617 -0.65905923 31
-3.2602587 -6.8383451 -0.35328874 5
-5.1026187 -10.702669 -0.27528006 14
-3.4325004 -7.1996193 0 6
-5.3960409 -11.318117 0.29110983 11
-5.3899164 -11.305271 0.58406305 22
-4.8494325 -10.171614 0.78796911 9
-4.8136883 -10.096642 1.0435481 11
-10.782838 -22.616844 3.5213583 8
-5.5885315 -11.721863 2.1335063 17
-2.1433218 -4.4955859 -0.93835092 17
-5.4809494 -11.496211 2.3995714 45
-3.1141715 -6.4823503 -1.1815344 16
-3.9699745 -8.2637596 -1.2884647 27
-4.0093818 -8.345788 -1.0827569 45
-3.9649239 -8.2532463 -0.85423428 40
-3.2812817 -6.8302011 -0.52987015 3
-3.2615001 -6.7890244 -0.35123909 5
-5.1187649 -10.655042 -0.27444446 21
-3.4174709 -7.113688 0 3
-5.4079509 -11.257001 0.28994927 15
-5.4433312 -11.330647 0.5862059 13
-4.8994603 -10.198545 0.79117793 11
-4.8608694 -10.118215 1.0472637 13
-5.5455155 -11.54335 2.1040003 29
-2.1532459 -4.482121 -0.93686968 21
-5.4520521 -11.348801 2.3721688 8
-3.0841258 -6.3741426 -1.1633769 22
-3.9576693 -8.1795464 -1.2770525 34
-4.0067163 -8.2809143 -1.0757878 47
-4.0746889 -8.4213972 -0.87281275 26
-3.2951293 -6.810236 -0.52903312 12
-3.2734852 -6.7655029 -0.35049373 3
-3.2578719 -6.7332339 -0.17366318 3
-5.3871145 -11.133864 0.28716397 11
-5.1373358 -10.617632 0.55005717 5
-4.9418249 -10.213557 0.79341012 11
-4.9211974 -10.170925 1.0541378 12
-5.1600213 -10.664516 1.3854456 9
-5.2459369 -10.842084 1.9788431 46
-2.1580498 -4.4601679 -0.93353695 21
-5.433218 -11.229149 2.3503208 16
-3.0949984 -6.3513126 -1.1607829 25
-4.016067 -8.2414579 -1.2884647 43
-4.0376582 -8.2857647 -1.0778786 65
-4.1034245 -8.4207258 -0.87392735 9
-3.3622036 -6.8996501 -0.53670633 2
-4.3023052 -8.8288527 -0.45800832 1
-5.3113289 -10.899492 -0.28150055 9
-3.5053356 -7.1933746 0 5
-5.346364 -10.971388 0.28335741 3
-9.7344465 -19.976267 1.0362949 5
-4.2344365 -8.6895781 0.67594022 6
-4.2307844 -8.6820841 0.90105188 5
-5.1697688 -10.608994 1.3801028 18
-5.212472 -10.696626 1.6723042 11
-5.4240279 -11.130764 2.0342884 48
-3.1184168 -6.3486438 -1.1620799 20
-4.0227289 -8.1896925 -1.2823411 37
-4.0733023 -8.2926521 -1.0804338 47
-2.9490216 -6.0037799 -0.62404811 2
-3.302125 -6.7226472 -0.34928256 5
-5.327033 -10.845065 -0.28052568 6
-3.4397411 -7.0028133 0 8
-4.2886009 -8.7309685 0.22584105 8
-4.278934 -8.7112885 0.45260462 7
-4.9741993 -10.126747 0.78894573 16
-4.9419594 -10.061111 1.0457774 10
-5.0787101 -10.339517 1.3471159 6
-5.3543253 -10.900628 1.7068191 36
-5.2431865 -10.674366 1.9538767 14
-5.3992434 -10.992075 2.3073657 19
-3.1483831 -6.364677 -1.1666194 20
-4.0842199 -8.2565365 -1.2945882 27
-4.0973239 -8.2830267 -1.0806662 52
-2.96136 -5.9865966 -0.62311912 7
-3.3172798 -6.7061133 -0.52317357 4
-4.3759079 -8.8462038 -0.22913699 7
-3.4486408 -6.9716687 0 11
-5.5674028 -11.254895 0.2915276 11
-4.2961559 -8.6849804 0.4518593 3
-5.0307655 -10.170044 0.79341012 14
-4.9603219 -10.027638 1.0437338 12
-5.0837812 -10.27722 1.3408438 21
-5.2477531 -10.608701 1.6633971 8
-5.1469674 -10.404955 1.9071859 10
-5.3488727 -10.81312 2.2729273 64
-3.1943038 -6.4123874 -1.176995 12
-4.1381698 -8.3071461 -1.3043305 76
-4.12221 -8.2751083 -1.0811307 30
-4.1829672 -8.3970747 -0.87522793 7
-4.3836555 -8.7999449 -0.22825497 10
-3.5126851 -7.0515199 0 22
-4.3667164 -8.7659407 0.22737296 9
-4.3738413 -8.7802439 0.45744932 5
-4.9995437 -10.036305 0.7840628 16
-4.9945221 -10.026225 1.0450344 11
-5.0602036 -10.158078 1.3271379 12
-5.165206 -10.368864 1.6280471 14
-5.2305627 -10.500064 1.9272889 14
-5.2624936 -10.564163 2.2236767 9
-3.1905243 -6.3547001 -1.1682405 31
-2.6686373 -5.3152356 -0.83587372 12
-4.2569275 -8.4786997 -1.1094714 10
-4.2137942 -8.3927898 -0.87615681 14
-4.24685 -8.4586277 -0.66184944 22
-4.2427382 -8.4504385 -0.44095877 28
-4.4032059 -8.7700481 -0.22783719 3
-3.5671268 -7.104795 0 11
-4.3816743 -8.7271633 0.22672306 9
-5.0337343 -10.025898 0.78448129 9
-5.0286756 -10.015822 1.0455917 11
-5.0573297 -10.072894 1.3180782 13
-5.1995325 -10.356125 1.6286038 10
-5.2263322 -10.409503 1.9136708 4
-5.2983017 -10.552848 2.2247877 9
-3.3266864 -6.5800104 -1.2113645 13
-2.6906188 -5.3219023 -0.83810049 11
-4.2877588 -8.4809608 -1.11133 20
-4.2372155 -8.3809891 -0.87615681 14
-4.2902589 -8.4859056 -0.66491872 22
-4.2600102 -8.4260759 -0.4403066 12
-5.5057311 -10.890046 -0.28331098 6
-3.5472491 -7.0162721 0 12
-3.5625319 -7.0465007 0.18331887 7
-4.5917253 -9.0821905 0.474592 3
-5.0563121 -10.001119 0.7836442 11
-5.0862761 -10.060386 1.0517225 21
-5.0719957 -10.032141 1.3145937 18
-5.2784739 -10.440543 1.644191 14
-5.2669573 -10.417764 1.9178859 12
-5.3472595 -10.576598 2.2329345 22
-3.3405707 -6.561902 -1.2097434 20
-2.7072661 -5.3178983 -0.8386572 6
-4.2834864 -8.4140768 -1.1041286 27
-4.252471 -8.3531532 -0.87448478 9
-4.3257046 -8.4970064 -0.66673237 13
-4.3297477 -8.5049486 -0.44505811 7
-3.381722 -6.642736 -0.1730597 2
-3.5532167 -6.9796042 0 11
-5.1726747 -10.160715 0.53170329 5
-5.1014166 -10.020741 0.78629494 14
-5.0673699 -9.9538641 1.0420618 13
-5.0936804 -10.005546 1.3129677 22
-5.3399544 -10.489303 1.6542116 4
-2.2452261 -4.4103107 -0.93242604 8
-5.4053059 -10.617674 2.2447841 16
-3.2384491 -6.3148899 -1.1659708 25
-2.7221293 -5.3080797 -0.83837879 5
-4.3084331 -8.40133 -1.1041286 45
-4.2717853 -8.3298674 -0.87337005 16
-3.4468503 -6.7212667 -0.52819604 3
-4.4333658 -8.6449461 -0.45307046 14
-5.8895245 -11.484417 -0.29965138 2
-3.6113291 -7.041996 0 13
-3.5848088 -6.9902825 0.18239044 26
-5.5510516 -10.824404 0.56729305 3
-5.125052 -9.9937153 1.0478212 8
-5.1233459 -9.9903889 1.3129677 22
-5.268929 -10.274272 1.6227585 8
-5.3511863 -10.434671 1.9266404 14
-2.3085268 -4.5015659 -0.95316303 5
-5.5650382 -10.851677 2.2977376 13
-3.2363389 -6.2649245 -1.1585133 42
-2.7814984 -5.3844414 -0.85173947 16
-4.3369884 -8.3955688 -1.1050578 27
-3.1037765 -6.0083094 -0.63092208 16
-4.3783073 -8.4755545 -0.44487175 24
-6.1016021 -11.811519 -0.30865717 10
-3.6478121 -7.0614572 0 11
-3.600028 -6.968956 0.1821119 35
-3.3375998 -6.4609461 0.33912736 3
-3.3651371 -6.5142531 0.51271009 5
-4.4747024 -8.6621561 0.90959793 5
-5.159348 -9.9874973 1.3145937 19
-5.348609 -10.35387 1.9146434 17
-5.6531386 -10.94338 2.3206966 6
-3.4314005 -6.5972834 -1.2217402 23
-2.8129728 -5.4082808 -0.85674965 17
-4.3411655 -8.3464165 -1.1001794 20
-4.3187709 -8.30336 -0.87318426 16
-4.6795602 -8.9970217 -0.70914429 8
-4.3752227 -8.4118958 -0.44216993 7
-4.6315985 -8.904809 -0.23303641 1
-3.6019917 -6.9252653 0 16
-3.6185513 -6.9571028 0.18206549 35
-3.370378 -6.47996 0.34061804 4
-5.1297479 -9.8625622 0.7773661 7
-5.3137116 -10.216254 1.3466513 4
-5.3152213 -10.219156 1.6188617 21
-5.3547335 -10.295123 1.9065374 14
-5.447875 -10.474199 2.2244174 9
-3.5400615 -6.7542782 -1.2528675 12
-2.8170779 -5.3748579 -0.85285282 22
-3.1934516 -6.0929623 -0.80445975 22
-3.6561327 -6.9757371 -0.73477525 9
-3.4352362 -6.5542765 -0.34509006 7
-4.4005833 -8.3961153 -0.22008477 6
-3.5893779 -6.848372 0 10
-3.6292515 -6.924449 0.18150842 40
-4.3997736 -8.3945704 0.44198361 2
-4.6188889 -8.8126326 0.69575113 6
-5.1352258 -9.79778 1.0320295 7
-5.4158649 -10.333227 1.3643061 7
-5.4079809 -10.318184 1.6372325 8
-5.4282775 -10.35691 1.9211283 21
-5.450645 -10.399586 2.2121975 6
-3.4615028 -6.5570002 -1.2181736 28
-2.784009 -5.2736483 -0.83810049 11
-3.237483 -6.132648 -0.81096423 17
-3.6433468 -6.9014611 -0.72808707 9
-4.6198683 -8.7512503 -0.69198418 13
-3.4583993 -6.5511217 -0.34546274 10
-4.4124084 -8.3582668 -0.21943487 6
-3.6078148 -6.8341537 0 5
-3.6199112 -6.8570676 0.18002294 47
-5.3088479 -10.05636 0.5303058 8
-4.8815985 -9.2470369 0.73118734 13
-3.361659 -6.3678703 0.67179453 4
-5.4335184 -10.292519 1.3610539 4
-5.4302506 -10.286329 1.6347274 8
-5.5852089 -10.579861 1.9655492 12
-5.4778075 -10.376414 2.2107162 5
-3.3814366 -6.3649158 -1.1841284 17
-2.7894433 -5.2506003 -0.83559537 90
-3.3196979 -6.248704 -0.82745767 67
-3.4717894 -6.5349879 -0.34509006 7
-4.401443 -8.2848854 -0.21781012 9
-3.6116197 -6.798192 0 3
-3.7119589 -6.9870615 0.18369025 33
-3.7211134 -7.0042934 0.36987245 4
-3.406347 -6.4118052 0.67736804 6
-5.4306226 -10.222121 1.3536203 1
-5.3289332 -10.03071 1.5963155 8
-5.5610375 -10.467603 1.9473919 8
-5.5031104 -10.358566 2.2099757 2
-3.4116597 -6.3734012 -1.187695 21
-2.915282 -5.446106 -0.86816186 25
-3.5896187 -6.7058501 -0.88948214 47
-3.6877339 -6.8891416 -0.72901601 11
-3.5054703 -6.5486503 -0.51940674 5
-4.4860611 -8.3805151 -0.44328794 15
-4.4585867 -8.3291893 -0.21934204 9
-3.4394643 -6.4253435 0 6
-3.7187917 -6.9471612 0.1829475 40
-3.7591264 -7.022512 0.3714563 8
-4.3604169 -8.1457968 0.64608443 4
-6.2091889 -11.59953 1.2274741 5
-4.7155347 -8.8091993 1.1684761 5
-5.3351808 -9.9667759 1.5888002 8
-5.6982079 -10.644955 1.9837068 10
-5.569943 -10.40534 2.2236767 8
-3.4180388 -6.3453345 -1.1841284 17
-2.9492548 -5.4750719 -0.87400711 3
-3.3659947 -6.2487183 -0.83001292 27
-3.1344061 -5.8187914 -0.61661673 10
-3.5244954 -6.5429635 -0.51968575 10
-4.5108285 -8.3740177 -0.44356743 36
-3.4667222 -6.4357114 -0.16971734 5
-3.6488166 -6.7737565 0 6
-3.6345587 -6.7472873 0.17793396 63
-3.7812891 -7.0196815 0.37182894 7
-3.4317703 -6.3708262 0.50601345 5
-6.2688122 -11.637583 1.2332335 7
-5.4149837 -10.052514 1.3352685 6
-5.3640747 -9.958005 1.5896354 12
-5.5669484 -10.334625 1.9285859 12
-2.4411287 -4.531774 0.96982676 2
-3.4163048 -6.2946706 -1.1766708 16
-3.4718368 -6.3969903 -0.85115236 42
-3.5934181 -6.6210089 -0.70282048 13
-3.5507436 -6.5423794 -0.52052283 6
-3.4993224 -6.4476337 -0.17032082 5
-3.706332 -6.8290567 0 12
-3.6938884 -6.806129 0.17979082 42
-3.7814052 -6.9673824 0.3696861 10
-5.7396235 -10.575474 0.84140259 7
-5.4588561 -10.058149 1.3382884 1
-5.3065281 -9.7774792 1.5634707 24
-5.6972933 -10.497478 1.962307 17
-2.4656665 -4.5430837 0.97390008 2
-3.4179289 -6.2533345 -1.1708344 16
-3.4545979 -6.3204226 -0.84232491 45
-3.3962455 -6.2136631 -0.66064751 14
-4.5279827 -8.2842541 -0.66017526 10
-4.5695643 -8.3603296 -0.44431275 28
-3.4407618 -6.2951088 -0.16656066 6
-3.748589 -6.8582997 0.181462 19
-3.4677532 -6.3444915 0.50559491 10
-2.8499427 -5.2141647 0.55437911 6
-5.4941463 -10.051916 1.6099546 8
-2.8026829 -5.1276999 0.96007776 3
-2.4847913 -4.5460954 0.9761219 2
-3.4583552 -6.2829323 -1.1782919 7
-3.0828657 -5.6007657 -0.89850163 5
-3.4723768 -6.3084064 -0.84209263 45
-4.5486922 -8.263792 -0.65961719 10
-4.5664105 -8.2959805 -0.44161093 29
-4.5595355 -8.2834902 -0.21952771 13
-3.4545691 -6.2760544 0 31
-2.849107 -5.1760869 0.13717581 4
-3.5009143 -6.3602514 0.33856836 19
-6.226552 -11.312026 0.90292776 11
-2.8605986 -5.1969643 0.55345017 6
-2.7127643 -4.9283876 0.65787756 12
-2.8426273 -5.1643147 0.96850806 5
-5.9765091 -10.857763 2.3351383 5
-3.4832568 -6.291729 -1.1815344 5
-3.4965606 -6.3157592 -1.014572 15
-3.4791222 -6.2842607 -0.84000188 37
-3.7953656 -6.855484 -0.73105961 22
-4.5640407 -8.2439241 -0.65891963 19
-3.6045022 -6.5107317 -0.34704655 8
-3.4369588 -6.2081022 0 11
-2.8636839 -5.1726084 0.13726866 6
-3.5145106 -6.3481822 0.33838204 9
-2.8565114 -5.1596532 0.41240028 9
-2.8665378 -5.1777635 0.55214971 7
-2.7209506 -4.9147925 0.65694839 12
-3.0687234 -5.5429668 0.89042956 6
-2.8514144 -5.1504464 0.96721107 6
-6.4571052 -11.663325 2.5117736 1
-3.5154202 -6.3030133 -1.0142937 15
-3.5114267 -6.2958527 -0.84302181 47
-3.8440437 -6.8922224 -0.73626155 20
-4.5792274 -8.2103786 -0.65738505 21
-4.6105986 -8.2666264 -0.21975982 34
-3.817872 -6.8452978 0 8
-3.8343742 -6.8748856 0.18276182 11
-3.5344369 -6.3371096 0.33838204 11
-2.8552141 -5.1192894 0.40988904 6
-2.8740602 -5.1530795 0.55047762 9
-2.7518592 -4.9339776 0.66066521 29
-3.0668278 -5.4987044 0.88486266 8
-2.869504 -5.1449103 0.96785957 8
-5.7173028 -10.250904 2.2114568 5
-3.5202427 -6.2704329 -0.84093112 40
-3.6039693 -6.4195714 -0.68684304 100
-4.6158109 -8.2219143 -0.65933818 13
-3.1706972 -5.6478052 -0.30204695 6
-4.633666 -8.2537184 -0.21975982 13
-3.7028406 -6.595686 0 16
-3.553098 -6.3289566 0.3384752 10
-2.8704758 -5.1130357 0.41002855 9
-2.8465216 -5.0703673 0.54248893 13
-2.8171666 -5.0180788 0.67297715 100
-2.9396489 -5.2362504 0.84394574 7
-2.8983519 -5.1626902 0.97272319 7
-5.7670751 -10.272604 2.2196035 8
-3.5566599 -6.2889376 -1.0154071 24
-3.4822283 -6.1573267 -0.82722533 30
-3.5760841 -6.3232837 -0.67773962 23
-3.4797392 -6.1529255 -0.49429438 15
-3.1835065 -5.6291223 -0.30158114 11
-4.6526814 -8.2269392 -0.21943487 6
-3.8101819 -6.7372189 0 12
-3.670372 -6.490005 0.17310612 22
-3.0831921 -5.451745 0.29207811 5
-2.8825953 -5.0970464 0.4094705 8
-2.9854658 -5.2789435 0.70921624 7
-2.9872823 -5.282156 0.85285282 10
-2.9194133 -5.162149 0.97434437 7
-2.9983454 -5.3017178 1.1475728 4
-3.5988262 -6.3196626 -1.0220873 31
-3.5122786 -6.1676817 -0.83001292 20
-3.6716931 -6.4476194 -0.69223076 47
-4.6985292 -8.2507792 -0.66394216 27
-3.215024 -5.6456928 -0.30297863 12
-4.6899338 -8.2356853 -0.22003835 24
-3.9489198 -6.9344387 0 6
-3.8113134 -6.6927977 0.17881598 13
-2.9046171 -5.1006074 0.41044709 5
-2.7030203 -4.7465968 0.50960517 10
-2.6718087 -4.6917882 0.63139522 11
-3.017643 -5.2990851 0.85702807 16
-2.9444833 -5.1706138 0.97758681 7
-3.0062821 -5.2791348 1.1446103 4
-3.7474484 -6.5381207 -1.0591073 24
-3.4978783 -6.1026988 -0.82257926 25
-3.6520548 -6.3716888 -0.68517101 31
-3.7075939 -6.4685869 -0.52135992 13
-4.7765493 -8.3335781 -0.22300935 26
-6.1344075 -10.702614 0 5
-2.9023204 -5.0636373 0.13550463 4
-3.0785828 -5.37116 0.43290868 4
-2.8113298 -4.9048877 0.52744049 87
-2.6898396 -4.6929255 0.63255674 9
-3.029475 -5.2854824 0.85619301 22
-2.978539 -5.1966152 0.98407161 7
-5.9433126 -10.369214 2.2518198 4
-3.1194367 -5.4073834 -0.87734729 2
-3.5476625 -6.1496906 -0.83024526 60
-3.6718228 -6.3649158 -0.68554252 31
-3.6987243 -6.4115481 -0.51759303 5
-3.5330198 -6.1243081 -0.32971755 20
-4.7138758 -8.1712618 -0.21901709 16
-3.0273514 -5.2477579 0.14065742 6
-3.0706389 -5.3227944 0.42969987 9
-2.7961578 -4.8469958 0.52205271 11
-2.7059114 -4.6905584 0.63325363 9
-3.035315 -5.2615623 0.85368788 20
-3.0236099 -5.241272 0.9941231 8
-3.0769677 -5.3337655 1.160163 4
-3.49705 -6.0206141 -0.81421643 12
-3.6476841 -6.2799492 -0.67755383 38
-3.3130548 -5.7038431 -0.15314484 4
-5.1341577 -8.8391018 0 28
-3.0358791 -5.2266498 0.14033248 6
-2.9581425 -5.0928164 0.27465591 11
-3.0683813 -5.2826061 0.42718863 7
-3.0195663 -5.198565 0.56088156 12
-2.7357807 -4.7099924 0.63697046 9
-3.0310183 -5.2182813 0.84812093 17
-3.0639288 -5.274941 1.0022291 7
-3.0927801 -5.3246121 1.160163 6
-3.5853271 -6.1330943 -0.99842787 19
-3.5609686 -6.0914264 -0.82513463 15
-3.6672173 -6.2731762 -0.67792541 42
-3.8413157 -6.570991 -0.53224194 85
-4.8104129 -8.2287378 -0.44449911 7
-3.3148432 -5.6704021 -0.15249494 11
-6.2832456 -10.748178 0 11
-3.0433996 -5.206068 0.14000753 4
-2.9925184 -5.1190305 0.27651924 13
-3.059963 -5.2344012 0.42397982 9
-3.0340722 -5.1901126 0.56088156 13
-2.7569437 -4.716054 0.63882887 11
-3.0085964 -5.1465335 0.83782214 37
-3.0208797 -5.1675453 0.98342317 8
-3.0907755 -5.2871094 1.153868 10
-3.5915136 -6.0996141 -0.99480939 19
-3.6355228 -6.1743565 -0.83791119 20
-3.6747823 -6.2410326 -0.67569596 54
-3.8892725 -6.60531 -0.53600878 68
-3.8286481 -6.5023494 -0.35189125 5
-3.3346703 -5.6634064 -0.15258777 14
-3.8388977 -6.5197563 0 7
-3.0780013 -5.2274947 0.14084311 1
-2.9791892 -5.0596781 0.27381742 16
-3.0976508 -5.2608662 0.42690963 7
-2.8897107 -4.9077134 0.53134191 34
-2.9383283 -4.9902825 0.81388432 92
-3.0401034 -5.1631317 0.98439586 16
-3.0924115 -5.2519684 1.1483133 7
-3.6688857 -6.193872 -0.84186029 20
-3.6880648 -6.2262506 -0.67513865 61
-4.0184002 -6.7839284 -0.55135518 13
-3.8609316 -6.5180869 -0.35328874 10
-3.3596761 -5.6718593 -0.15305199 16
-3.8559539 -6.5096836 0 5
-2.9873347 -5.0432668 0.27335158 9
-3.1246319 -5.275054 0.42872331 13
-2.8771777 -4.8572979 0.52669728 23
-2.7901351 -4.710351 0.64022267 13
-2.8827467 -4.8666997 0.7949568 11
-3.0515988 -5.1517587 0.98374736 23
-3.1111596 -5.2523098 1.150165 3
-3.6842539 -6.1754928 -0.84093112 25
-3.7116866 -6.2214751 -0.6758818 54
-3.9885819 -6.6856031 -0.54437953 29
-3.8803647 -6.5042105 -0.35319558 11
-3.6018226 -6.0373225 -0.16321833 13
-3.4163003 -5.7263532 0 8
-3.9275846 -6.5833602 0.17798039 15
-3.0246577 -5.0698872 0.27530807 12
-3.160609 -5.2977667 0.43137404 10
-2.8811991 -4.8294239 0.52465367 12
-2.7957585 -4.6862097 0.63813198 11
-2.9518001 -4.9477644 0.80970919 37
-3.0556338 -5.1218085 0.97985643 21
-3.1729569 -5.3184643 1.1668286 4
-3.6646318 -6.1062117 -0.83280057 37
-3.7341106 -6.2219806 -0.67699653 42
-3.9300981 -6.5485458 -0.53405553 45
-3.747283 -6.2439289 -0.33959323 13
-3.72668 -6.2095995 -0.16813901 15
-3.4261351 -5.7088146 0 11
-3.967443 -6.6107717 0.17900166 9
-3.0625942 -5.1030631 0.27754408 20
-3.1221077 -5.2022281 0.42425886 7
-2.9163773 -4.8594284 0.52874094 29
-2.8090401 -4.6805773 0.63836426 13
-3.048315 -5.0792704 0.83253354 23
-3.0466902 -5.0765629 0.97272319 12
-3.0837095 -5.1382465 1.1290576 1
-3.6868784 -6.0997696 -0.83349741 30
-3.7598183 -6.2204452 -0.6781112 35
-3.9754195 -6.5771475 -0.53740388 23
-3.3369694 -5.5208611 -0.30083579 9
-3.2879817 -5.4398131 -0.14757425 12
-3.4430172 -5.6963124 0 12
-2.9497716 -4.8802605 0.13239439 4
-3.1065128 -5.1395812 0.28005958 38
-3.1301787 -5.1787353 0.42314279 7
-2.924418 -4.8383136 0.52744049 19
-2.8350327 -4.6904302 0.64091957 11
-3.1544116 -5.2188277 0.85702807 7
-3.0728319 -5.0838575 0.97596562 7
-3.6460891 -5.9944081 -0.82048857 15
-3.7833838 -6.2201295 -0.67922586 35
-3.7905574 -6.2319231 -0.51005936 9
-4.1009216 -6.7421823 -0.36800912 10
-3.304199 -5.4323182 -0.14762066 12
-5.0969052 -8.3796434 0 9
-3.06479 -5.0387144 0.27502859 2
-3.1508489 -5.1802011 0.42397982 12
-2.9389524 -4.8318291 0.52762622 19
-2.9503179 -4.8505149 0.66391742 12
-2.9754791 -4.8918815 0.80469888 3
-3.0921443 -5.0836868 0.97758681 4
-3.6003151 -5.9191527 1.3053223 6
-3.3204107 -5.4205427 -0.74336451 45
-3.8133082 -6.2251935 -0.68108374 35
-3.8945315 -6.35779 -0.52135992 10
-3.321249 -5.4219108 -0.14762066 11
-5.1075354 -8.3380079 0 28
-3.1639812 -5.1651726 0.42356133 16
-2.9665999 -4.8429494 0.52985567 21
-2.9479024 -4.8124256 0.65996832 4
-3.0353181 -4.9551315 0.81666785 12
-3.1173782 -5.0890937 0.98050499 3
-2.738039 -4.4698257 0.98760134 2
-3.4783952 -5.645216 -0.7754221 12
-3.8400397 -6.2321424 -0.68294156 29
-3.3470435 -5.4320402 -0.4461624 6
-3.7498224 -6.0857248 -0.33335102 11
-3.3396285 -5.4200063 -0.14780636 11
-3.6752107 -5.9646349 0 6
-3.5535996 -5.7672682 0.15727636 9
-3.1450486 -5.1042156 0.41923639 30
-2.9897156 -4.8521199 0.53171349 12
-2.9865434 -4.8469715 0.66577584 4
-3.105423 -5.0399055 0.83197683 21
-3.0789273 -4.9969049 0.96429294 5
-2.7610736 -4.4810481 0.99167472 1
-3.4857066 -5.619678 -0.7733314 10
-3.8543158 -6.2139521 -0.68219841 31
-3.357888 -5.4136081 -0.44546482 10
-3.9184511 -6.3173518 -0.34667391 21
-3.3620188 -5.4202676 -0.14808488 10
-3.6886752 -5.9469056 0 18
-3.1206703 -5.0311642 0.13745435 1
-3.0686285 -4.9472623 0.27148822 8
-3.1097009 -5.0134792 0.41253981 99
-3.0177445 -4.8652267 0.53412867 6
-3.0668771 -4.9444385 0.6804108 3
-3.0305836 -4.8859262 0.80803907 12
-3.0396464 -4.900537 0.9474324 3
-3.3462188 -5.3947949 1.1960827 3
-3.3770583 -5.4065237 -0.74545521 47
-3.3452818 -5.3556514 -0.58912075 10
-3.9149849 -6.2677212 -0.51675594 19
-3.967912 -6.3524551 -0.34928256 22
-3.397037 -5.438509 -0.14887406 9
-3.1330669 -5.0159044 0 2
-3.0915635 -4.9494591 0.27214041 20
-3.2406437 -5.1881304 0.42774671 13
-2.9887049 -4.7847872 0.52632576 4
-2.9378467 -4.7033648 0.77936941 3
-3.0560715 -4.8926382 0.94775659 3
-2.6405406 -4.2273912 0.93909144 1
-3.8773103 -6.1737795 -0.6801548 28
-3.9355943 -6.2665839 -0.51745349 16
-3.9430468 -6.2784505 -0.34574223 21
-3.396492 -5.4081798 -0.14827058 9
-3.1410592 -5.0014586 0 5
-3.0908983 -4.9215879 0.27102241 6
-3.2904496 -5.2393303 0.43262964 19
-3.1155734 -4.9608779 0.68505687 4
-3.2368906 -5.1540494 0.85535794 5
-3.3951113 -5.4059815 1.2027481 3
-3.3442748 -5.2880754 -0.58373296 10
-3.9669926 -6.272737 -0.51898819 14
-3.9659553 -6.2710972 -0.34602174 20
-3.400641 -5.3772035 -0.14771351 4
-3.1653085 -5.0050883 0 5
-2.9346826 -4.6404152 0.1274737 4
-3.1074123 -4.9135413 0.27111557 4
-3.0334766 -4.7966313 0.52948409 2
-3.0812404 -4.8721571 0.67413872 7
-3.2403636 -5.1237679 0.85201776 7
-3.3513937 -5.2646914 -0.58224666 10
-4.0016561 -6.2861857 -0.52108085 10
-3.985616 -6.2609887 -0.3461149 22
-3.4273164 -5.3839579 -0.14817773 6
-3.1844399 -5.0024242 0 5
-2.9602482 -4.6502423 0.12798433 1
-3.2098958 -5.0424128 0.41798079 8
-2.8812668 -4.5261707 0.62744612 5
-3.0872033 -4.8496752 0.94451421 3
-3.4143493 -5.3635879 1.1979342 4
-3.3832681 -5.2821417 -0.5852192 10
-3.3670852 -5.256876 -0.43653601 5
-3.8500736 -6.0109439 -0.33288521 65
-3.1983974 -4.9935117 0 1
-3.7658668 -5.8794756 0.1621042 10
-3.1335053 -4.8921986 0.27092925 6
-3.4423413 -5.3743701 0.59543735 32
-2.8992524 -4.5264702 0.62860763 9
-3.0390844 -4.7447834 0.79189497 3
-3.0964768 -4.8343878 0.94321722 1
-2.9491045 -4.6043019 1.0301863 4
-3.6610403 -5.6764708 -0.63017893 35
-3.3943973 -5.2630386 -0.43793115 11
-3.7909751 -5.8779359 -0.32617718 20
-3.4917171 -5.4139338 -0.14957038 16
-3.1575217 -4.8957615 0.27167457 3
-2.9113054 -4.5140014 0.62814301 6
-3.1843865 -4.9374156 0.96526563 6
-3.1670196 -4.9104881 1.1009144 4
-3.6356866 -5.602747 -0.62311912 28
-3.7268991 -5.743309 -0.31928283 19
-3.4783728 -5.3603196 0 13
-3.0689552 -4.7293897 0.26291686 3
-3.1668944 -4.8803182 0.40681976 5
-3.7982845 -5.8533173 0.65098673 2
-2.9217372 -4.5025206 0.62767839 4
-3.1189361 -4.8064122 0.80525565 4
-3.2959223 -5.0791559 0.99477154 2
-3.1668122 -4.8801913 1.0961004 4
-3.4119916 -5.2280006 -0.58243251 20
-3.4260938 -5.2496085 -0.43834969 20
-3.7430131 -5.7352061 -0.31937602 22
-3.6684837 -5.6210089 -0.15583728 46
-3.5295579 -5.4081407 0 28
-3.3395591 -5.1170163 0.71455914 22
-3.0416648 -4.6605701 0.78215289 2
-3.2099743 -4.9184608 0.96494138 2
-3.2547693 -4.9870982 1.1220218 4
-3.4076211 -5.185636 -0.5789026 12
-3.8359118 -5.8373985 -0.48843482 24
-3.7555268 -5.7150707 -0.31891015 22
-3.5708303 -5.4340038 -0.15096302 9
-3.7343464 -5.6828389 0 10
-3.2770734 -4.9869719 0.69783342 3
-3.018224 -4.593061 0.77241075 6
-3.099689 -4.7170324 0.92732942 2
-3.4196973 -5.1705194 -0.57834524 15
-3.8345053 -5.7977018 -0.48606312 28
-3.7901015 -5.7305636 -0.32040083 34
-3.4898748 -5.2766266 -0.14687791 5
-3.0799117 -4.6567698 0.78465801 4
-3.8213241 -5.7777719 1.1380861 6
-3.2916791 -4.9769583 1.1242436 2
-3.7948546 -5.703073 -0.63909656 23
-3.8628387 -5.8052421 -0.48759773 41
-3.5559657 -5.3440599 -0.29934511 100
-3.5079193 -5.2718539 -0.14701718 2
-3.17958 -4.7784109 0.80664736 2
-2.8556707 -4.2916265 0.84691769 2
-2.838474 -4.2657824 0.96538311 2
-3.4616082 -5.1689382 -0.58038884 22
-3.4703922 -5.182055 -0.43611747 32
-3.7730179 -5.6339412 -0.31620833 15
-3.3645606 -5.024025 0.84979105 3
-3.8743043 -5.7851839 1.1439224 6
-3.8539848 -5.7548428 1.304952 5
-3.4557834 -5.1272702 -0.576859 27
-3.4667959 -5.1436095 -0.43374577 32
-3.7126727 -5.5084114 -0.30977979 45
-3.9002767 -5.7867551 1.1465164 4
-4.0292244 -5.9780717 1.3582759 6
-3.5038311 -5.1693048 -0.5826183 62
-3.5006545 -5.164618 -0.2909601 15
-4.1457319 -6.1163197 1.2139585 1
-3.9665666 -5.8519917 1.3319843 5
-3.7817423 -5.543829 -0.62609172 33
-3.9373212 -5.7718987 -0.48857433 15
-3.5159619 -5.1542091 -0.2909601 4
-4.1983361 -6.1545329 1.22401 1
-4.6074705 -6.7543015 1.5404656 5
-3.7790151 -5.5046749 -0.62293339 66
-3.9521711 -5.7569017 -0.48829532 16
-4.1013365 -5.9741821 1.3653116 3
-3.7127008 -5.373837 -0.60937119 70
-4.1402707 -5.9927096 1.3723474 3
-3.5887768 -5.1616507 -0.43960533 9
-3.381628 -4.8637133 1.116097 1
-3.8166354 -5.4568009 -0.6212613 35
-4.046855 -5.7859554 -0.49373633 4
-3.395196 -4.8542519 1.116097 2
-3.8112333 -5.4168062 -0.61791724 52
-4.1272888 -5.8660078 -0.50154907 3
-4.2038097 -5.9747648 1.3764207 5
-3.8940303 -5.4997363 -0.62869263 16
-4.22192 -5.9628315 -0.51089644 2
-3.2004952 -4.5202217 1.0435172 4
-3.2324893 -4.5384812 1.0498124 4
-3.2455862 -4.5267062 1.0494422 2
-3.9235065 -3.2828872 -0.47727877 2
-3.8616154 -3.2116721 -0.70588601 2
-4.0579724 -3.3749802 -0.61722481 2
-3.8781118 -3.2253919 -0.47059059 2
-3.8319917 -3.1667228 -0.69864905 4
-3.8327405 -3.1673415 -0.5814504 1
-3.9219952 -3.2411008 -0.47467783 2
-3.967957 -3.2604775 -0.47913668 5
-4.447866 -3.6327653 -0.67158335 2
-4.4264255 -3.6152537 -0.53319973 5
-4.1104889 -3.3393126 -0.7442978 4
-4.4450278 -3.611088 -0.66972494 4
-4.3972349 -3.572262 -0.52855515 5
-4.199491 -3.3909826 -0.88679928 2
-4.1712284 -3.3681614 -0.75348318 4
-4.4418125 -3.5866516 -0.66763425 2
-4.1428809 -3.3452716 -0.49678609 2
-4.1695166 -3.3463902 -0.87836903 3
-4.2476215 -3.4090757 -0.76545215 4
-3.9210439 -3.1469696 -0.35157263 6
-4.5290108 -3.6141667 -0.95197171 3
-4.4800434 -3.5750904 -0.80553395 4
-4.1153851 -3.2840919 -0.49121258 8
-4.1496992 -3.3114746 -0.37124392 4
-3.9613419 -3.1611648 0.83265102 0
-4.5480742 -3.6060519 -0.95359296 3
-4.4617658 -3.5376201 -0.8002454 4
-4.1428461 -3.2847569 -0.49325624 8
-4.1788416 -3.3132966 -0.3729181 4
-3.9372308 -3.1217299 0.82551771 1
-4.5472779 -3.5847845 -0.95132327 4
-4.5136218 -3.5582521 -0.80776078 4
-4.3881431 -3.4593327 -0.52130961 7
-4.2836533 -3.3769596 -0.38142842 4
-4.5491948 -3.5631804 -0.94937783 4
-4.495153 -3.5208521 -0.80247217 4
-4.1973972 -3.2876334 -0.62349695 6
-4.360209 -3.4151566 -0.38728791 4
-3.9168441 -3.0678887 0.81741172 3
-4.5227356 -3.5424562 -1.0823992 2
-4.4426951 -3.4622815 -0.92538399 4
-4.4475045 -3.4660294 -0.79245168 4
-4.3652368 -3.4019165 -0.6471917 8
-4.380693 -3.4139619 -0.51815122 10
-4.2444224 -3.3077633 0.75626671 1
-4.0908909 -3.188113 0.85210544 3
-4.4647174 -3.4794438 -1.0664761 4
-4.5378151 -3.5135517 -0.94289303 4
-4.4145241 -3.4180896 -0.78465801 4
-4.3837562 -3.3942666 -0.64835322 6
-4.4528041 -3.4477291 -0.52539682 10
-4.3776379 -3.389529 -0.38714844 4
-4.1898332 -3.2441151 0.87058723 3
-4.4569783 -3.4509609 -1.0620325 5
-4.4803653 -3.4490993 -0.92895067 4
-4.3910952 -3.3803773 -0.77881271 4
-4.4892359 -3.4559286 -0.66252363 6
-4.4703045 -3.4413545 -0.52632576 7
-4.4123812 -3.3967636 -0.38938063 3
-3.9375477 -3.0312247 0.69837064 4
-4.2051315 -3.2372174 0.87188423 3
-4.415204 -3.3989367 -1.0498124 4
-4.4288583 -3.3897946 -0.91630524 4
-4.4052358 -3.3717139 -0.77964777 4
-4.479939 -3.4288912 -0.65973604 6
-4.4656644 -3.4179654 -0.52465367 10
-5.6544533 -4.3278503 -0.49792174 9
-4.0057607 -3.0659606 0.70894784 4
-4.1499 -3.1762831 0.85859036 3
-4.4793034 -3.4284046 -1.0627731 4
-4.4206347 -3.3615291 -0.91241431 4
-4.4189596 -3.3602555 -0.78020447 4
-4.5412893 -3.4532769 -0.66716969 2
