# .PCD v0.7 - Point Cloud Data file format
VERSION 0.7
FIELDS x y z intensity
SIZE 4 4 4 4
TYPE F F F F
COUNT 1 1 1 1
WIDTH 1361
HEIGHT 1
VIEWPOINT 0 0 0 1 0 0 0
POINTS 1361
DATA ascii
-3.2452531 -14.28404 0.34008458 25
-3.4612558 -15.23478 0.72856486 12
-1.062955 -4.6786156 -1.4971185 16
-4.4705648 -19.677273 1.411034 19
-1.2168878 -5.356154 -1.5749919 18
-4.345192 -19.125441 1.8297856 14
-1.3082463 -5.7582693 -1.5458468 23
-3.1418581 -13.828946 1.6583998 2
-1.3909191 -6.1221557 -1.4875685 15
-4.5629215 -20.083782 2.8945222 22
-1.461906 -6.4346051 -1.4025724 22
-3.1284173 -13.769786 2.3199446 6
-1.6071931 -7.0740895 -1.3667929 19
-4.4714885 -19.681339 3.8026538 16
-1.7434253 -7.5696855 -1.2762128 25
-1.9002938 -8.2507849 -1.1899301 16
-2.0321546 -8.8233032 -1.0588298 32
-2.3330309 -10.129663 -0.96979189 28
-2.4816425 -10.774912 -0.77318078 14
-3.4441171 -14.95383 -0.71561468 16
-3.2849162 -14.262603 0 24
-3.2849286 -14.262657 0.33980605 25
-3.5037537 -15.212762 0.72800589 12
-1.0832599 -4.7033486 -1.5060548 16
-4.4183264 -19.183697 1.3765743 12
-1.2353637 -5.3637605 -1.5782996 19
-4.3938751 -19.077534 1.8264414 10
-1.325326 -5.7543621 -1.5458468 21
-3.1909018 -13.854407 1.6625812 2
-1.3824341 -6.0023174 -1.4594404 16
-3.4218626 -14.857203 2.1427093 12
-1.4805527 -6.4283333 -1.4021566 27
-4.3346438 -18.82036 3.173023 14
-1.6175886 -7.0233226 -1.3579055 12
-4.5457463 -19.736935 3.815985 11
-1.7605486 -7.5535636 -1.2742674 26
-1.9057033 -8.1763439 -1.1799097 22
-2.0268393 -8.6960726 -1.0441948 35
-2.3509536 -10.086673 -0.96626198 30
-2.4926329 -10.694542 -0.76787925 29
-3.3744502 -14.477944 -0.34514454 9
-3.3190658 -14.240319 0 24
-3.3236182 -14.259851 0.33994535 25
-3.5304167 -15.147112 0.72530401 10
-1.1038034 -4.7358246 -1.517374 19
-4.2620215 -18.286034 1.3129563 17
-1.249838 -5.3623805 -1.5788509 21
-4.4325037 -19.017481 1.8217969 14
-1.3395078 -5.7471046 -1.5448339 21
-3.2479029 -13.934998 1.6732671 8
-1.3791479 -5.9171796 -1.4396123 20
-4.5644269 -19.583492 2.8260493 21
-1.4942682 -6.4110985 -1.3992459 30
-3.0238431 -12.973678 2.1886272 4
-1.6315085 -6.9999223 -1.3542025 15
-1.7833614 -7.5441542 -1.2736189 26
-1.8912852 -8.0007038 -1.1554152 24
-2.0532341 -8.6857967 -1.0437301 45
-2.3725512 -10.036604 -0.96217477 30
-2.5248406 -10.680834 -0.76746076 31
-3.3757603 -14.280479 -0.68431062 22
-3.4585543 -14.630723 -0.34904397 6
-3.366086 -14.239555 0 21
-3.3729987 -14.268797 0.34040955 20
-3.5917723 -15.194275 0.72809905 8
-1.1371225 -4.81037 -1.5423956 13
-4.6673522 -19.744301 1.4187071 13
-1.2666779 -5.3584275 -1.5788509 19
-3.273195 -13.846599 1.3274258 6
-1.3553301 -5.7334533 -1.5423013 21
-3.3094862 -14.00012 1.6823269 2
-1.3959391 -5.9052415 -1.4377676 24
-4.6218252 -19.551708 2.823544 21
-1.5126011 -6.398757 -1.3975825 31
-1.6534908 -6.9947624 -1.3542025 21
-3.210675 -13.58212 2.6295302 6
-1.8052791 -7.5369096 -1.2732947 25
-1.9048674 -7.9526839 -1.1492915 25
-2.0697434 -8.6410294 -1.0390842 22
-2.3935082 -9.9927235 -0.95864487 26
-2.5500159 -10.646132 -0.76550758 24
-3.4116039 -14.243199 -0.68300629 32
-3.6784699 -15.357346 -0.36663774 13
-3.4264925 -14.305358 0 17
-3.4344187 -14.338449 0.34231284 31
-3.6670902 -15.309836 0.73415488 8
-1.1758509 -4.9090919 -1.5751617 11
-3.4260461 -14.303494 1.0284895 18
-1.2798849 -5.3434267 -1.5755432 14
-3.3161223 -13.84457 1.328169 8
-1.3664778 -5.704946 -1.5357168 17
-3.5407283 -14.782284 1.7775704 16
-1.411642 -5.8935032 -1.4359232 22
-3.520937 -14.699656 2.1243384 36
-1.5293027 -6.384728 -1.3955034 31
-3.4914935 -14.576733 2.4626107 49
-1.671034 -6.9764457 -1.3516103 22
-3.1900725 -13.318322 2.5802798 2
-1.8231443 -7.5244856 -1.2719977 21
-1.9182177 -7.9168725 -1.1448381 22
-2.0755174 -8.5660801 -1.0307214 20
-2.4102807 -9.9477167 -0.95492917 30
-2.5543861 -10.542468 -0.75853193 17
-3.4441743 -14.214804 -0.68207461 31
-3.4742908 -14.339102 0 14
-3.4724133 -14.331352 0.34235924 36
-3.7024517 -15.280767 0.7332232 8
-1.1936436 -4.9264083 -1.581715 16
-1.2925106 -5.3344531 -1.5738894 13
-1.3750292 -5.675024 -1.5286257 14
-3.5653801 -14.715046 1.7706013 21
-1.4247741 -5.880331 -1.4336177 20
-3.5566077 -14.67884 2.1226683 66
-1.5450902 -6.3769002 -1.3946717 31
-3.5119812 -14.494657 2.4502897 57
-1.6717044 -6.8994622 -1.3375388 17
-3.5442724 -14.62793 2.8357897 6
-1.8392426 -7.4880562 -1.2668098 18
-1.9369388 -7.8858042 -1.1412196 27
-2.1033661 -8.5633755 -1.031186 25
-2.4353461 -9.9149551 -0.95251399 35
-2.5613194 -10.427827 -0.75085872 31
-3.4883382 -14.201972 -0.68198144 31
-3.6509626 -14.864061 -0.35535729 12
-3.5064414 -14.275675 0 14
-3.531728 -14.378625 0.34375191 21
-3.5941322 -14.632689 0.70266449 8
-1.2132132 -4.9393206 -1.5870767 19
-3.502183 -14.258339 1.0266758 18
-1.3046774 -5.3116961 -1.5683765 11
-3.5326054 -14.382196 1.3816748 27
-1.3831595 -5.631218 -1.5179892 14
-3.605906 -14.680623 1.7678137 40
-1.4404556 -5.8644862 -1.430851 19
-3.6064851 -14.682981 2.1248951 36
-1.5609168 -6.3549166 -1.3909293 27
-3.543849 -14.427972 2.4408867 19
-1.6811824 -6.8445501 -1.3279109 14
-4.8283596 -19.657564 3.8137631 20
-1.8520527 -7.4503317 -1.2612977 17
-1.9532192 -7.8572989 -1.1378794 18
-2.1248758 -8.5478287 -1.0300244 35
-2.1964014 -8.8355579 -0.84940392 6
-2.5673268 -10.327696 -0.74416202 70
-3.5173817 -14.149522 -0.67993176 25
-3.6586926 -14.717979 -0.35210779 12
-3.5371263 -14.22895 0 14
-3.5877857 -14.43274 0.34528381 21
-3.6171486 -14.550858 0.69921732 8
-1.2237779 -4.9229436 -1.5829065 16
-3.5366926 -14.227205 1.0251411 14
-1.3130124 -5.2819114 -1.5606588 12
-3.4560175 -13.90267 1.3365293 12
-1.3914117 -5.5972915 -1.5098852 20
-3.6468887 -14.670496 1.7678137 26
-1.4549491 -5.8528862 -1.4290065 17
-3.6570306 -14.711293 2.1304619 12
-1.572994 -6.3277507 -1.3859395 18
-3.6712539 -14.768511 2.5002229 9
-1.6936519 -6.8131261 -1.3227267 19
-4.6366801 -18.652172 3.6212049 5
-1.8614675 -7.388978 -1.2518947 13
-1.9590241 -7.7762232 -1.1270239 16
-2.1497774 -8.5334063 -1.0290953 25
-2.5549185 -10.141588 -0.73132688 24
-3.5579107 -14.122903 -0.67918646 34
-3.710773 -14.72968 -0.35266486 15
-3.5793664 -14.20807 0 14
-3.6438549 -14.464052 0.3463051 21
-3.6579618 -14.52005 0.69828564 14
-1.2364389 -4.9079661 -1.5793319 16
-3.615 -14.349516 1.0347675 14
-1.3244331 -5.2572536 -1.5545948 16
-3.5201077 -13.972847 1.3443322 12
-1.4056802 -5.5797591 -1.5063397 22
-3.6968408 -14.674377 1.7696722 19
-1.4738042 -5.8501735 -1.4294676 12
-4.9887619 -19.802578 2.870028 11
-1.5909534 -6.3151894 -1.3842762 16
-4.8838806 -19.386257 3.2845619 14
-1.7121662 -6.7963362 -1.3205049 19
-3.3873618 -13.44592 2.6124961 1
-1.8713694 -7.3416781 -1.2447615 17
-1.974372 -7.7457738 -1.1234053 16
-2.1603508 -8.4753981 -1.0228231 12
-2.2443657 -8.8050022 -0.84773189 31
-2.5595746 -10.041615 -0.72463024 14
-3.596348 -14.109042 -0.67900014 34
-3.7271972 -14.622384 -0.35034376 25
-3.6368122 -14.267789 0 14
-3.6812677 -14.442196 0.34602657 21
-3.7113245 -14.560113 0.70070797 16
-1.2473102 -4.8933949 -1.5757575 14
-3.6412585 -14.285233 1.0308611 14
-1.3338851 -5.2330418 -1.5485307 16
-3.5684578 -13.999624 1.347862 19
-1.4179108 -5.5626884 -1.5027941 18
-3.7328975 -14.644748 1.7673491 19
-1.5093623 -5.9214673 -1.4479123 18
-3.7946489 -14.887008 2.1591318 6
-1.6090653 -6.3126178 -1.384692 16
-3.7636995 -14.765589 2.5034652 19
-1.7296817 -6.7858148 -1.3193939 22
-4.9769006 -19.525169 3.7963588 22
-1.8622966 -7.2217627 -1.225307 22
-1.9900604 -7.7172155 -1.1200652 16
-2.1418486 -8.305831 -1.0030775 12
-2.2803829 -8.843051 -0.85200495 31
-2.5651882 -9.9474916 -0.71835214 24
-3.6372313 -14.104747 -0.67927957 31
-3.7430534 -14.515112 -0.34802267 15
-3.6931226 -14.321486 0 14
-3.6951232 -14.329245 0.34356621 21
-3.7739205 -14.634811 0.70480734 28
-1.2619239 -4.8935895 -1.576949 12
-3.6701772 -14.232507 1.027792 14
-1.342253 -5.2050958 -1.5413642 18
-3.5851634 -13.902833 1.3395019 8
-1.431024 -5.5493393 -1.5002615 16
-3.7261615 -14.449607 1.7450483 19
-1.5258929 -5.9172292 -1.4479123 22
-5.1818724 -20.094679 2.9165118 23
-1.6286417 -6.3156772 -1.3863553 13
-3.8418798 -14.898349 2.5277834 9
-1.7466619 -6.7733455 -1.3179127 22
-4.8522749 -18.81654 3.6611977 7
-1.8779919 -7.1891427 -1.2207676 23
-2.0042839 -7.6726012 -1.1144983 13
-2.1513634 -8.2356358 -0.99541157 20
-2.3257687 -8.9032774 -0.85850734 29
-2.5903757 -9.9162197 -0.71667796 27
-3.6840501 -14.102915 -0.67974544 25
-3.7891414 -14.505216 -0.3480691 21
-3.721416 -14.245955 0 14
-3.7411327 -14.321434 0.34365904 21
-3.8653235 -14.796848 0.71319234 23
-1.2743962 -4.8785172 -1.5733744 15
-3.6871378 -14.114737 1.0201187 14
-1.3551973 -5.1878324 -1.5375051 16
-3.6680808 -14.041783 1.3539931 92
-1.4308463 -5.4774241 -1.4820274 14
-3.7685256 -14.426297 1.7436544 28
-1.541032 -5.8992262 -1.4446845 20
-3.8083394 -14.578708 2.1176581 12
-1.6455083 -6.2991719 -1.3838603 11
-3.8657207 -14.798369 2.5128682 9
-1.7614748 -6.7431035 -1.3130988 19
-3.7231398 -14.252555 2.7754302 4
-1.8904984 -7.1552501 -1.215904 22
-2.0125477 -7.6171885 -1.1072613 12
-2.1631889 -8.1873426 -0.99030089 17
-2.3246789 -8.7985582 -0.84903234 15
-2.644558 -10.009253 -0.72393268 78
-3.7285209 -14.111888 -0.68067706 21
-3.8408687 -14.537107 -0.3490904 18
-3.755563 -14.214238 0 14
-3.8020513 -14.390189 0.34556234 21
-3.8790703 -14.681694 0.70816129 16
-1.2860637 -4.8675566 -1.5709915 15
-3.696979 -13.992506 1.0120269 14
-1.3642769 -5.1635818 -1.5314412 16
-3.7367814 -14.143152 1.3647684 27
-1.4426769 -5.4603138 -1.4784819 22
-3.8082888 -14.413797 1.7434222 30
-1.5530252 -5.8779659 -1.4405344 18
-3.827281 -14.48568 2.1056893 12
-1.6615931 -6.2888784 -1.3826128 12
-3.900476 -14.762712 2.5086532 14
-1.7712609 -6.7039542 -1.3064332 21
-3.8442588 -14.549938 2.8354194 19
-1.9020344 -7.1133847 -1.2097434 18
-2.0197921 -7.5537844 -1.0989109 12
-2.1741309 -8.1309938 -0.98426104 15
-2.3075659 -8.6300259 -0.83342648 27
-2.7798955 -10.396482 -0.75253284 21
-3.7801814 -14.137434 -0.68244725 19
-3.7853227 -14.156662 0 14
-3.8431826 -14.373051 0.34542307 21
-3.9422262 -14.743462 0.71170169 18
-1.2960619 -4.8471193 -1.5656297 12
-3.7797093 -14.135669 1.0231879 14
-1.3741291 -5.139081 -1.5253773 18
-3.7458084 -14.008883 1.3528783 18
-1.4563727 -5.4466629 -1.4759494 22
-3.5924218 -13.435235 1.6263422 8
-1.5669401 -5.8601718 -1.4373065 20
-3.8896856 -14.546967 2.1162663 12
-1.6736764 -6.2593527 -1.3772072 15
-3.9468107 -14.760608 2.5102744 7
-1.7880983 -6.6872778 -1.3042114 22
-3.8940134 -14.563151 2.8402333 10
-1.9108685 -7.0721817 -1.2035828 18
-2.0266445 -7.5006714 -1.0919522 15
-2.1679471 -8.0236368 -0.97194904 10
-2.326514 -8.6104975 -0.83212602 33
-2.4740386 -9.1564903 -0.66324455 9
-3.8249946 -14.156419 -0.68384475 22
-3.9063511 -14.457521 -0.34769773 12
-3.8270648 -14.164081 0 14
-3.8656707 -14.306963 0.34407684 21
-4.005301 -14.823738 0.71608049 14
-1.3047626 -4.8289652 -1.5608637 14
-3.8536508 -14.262476 1.0330933 14
-1.3755423 -5.0909228 -1.5121466 13
-3.9055727 -14.454641 1.3969091 16
-1.4706262 -5.4428315 -1.4759494 24
-1.5761843 -5.8335047 -1.4317732 21
-3.8957241 -14.418191 2.0990088 18
-1.6650527 -6.1624098 -1.3568319 13
-1.7979084 -6.6541128 -1.2986569 21
-3.9295604 -14.54342 2.8383818 4
-1.9198751 -7.0226955 -1.1961253 18
-2.0389688 -7.4583268 -1.0866637 19
-2.1477432 -7.8562121 -0.95243585 10
-2.3520532 -8.6035557 -0.83212602 38
-2.4869919 -9.097147 -0.65947771 22
-3.8680372 -14.148861 -0.68403113 22
-4.0077596 -14.659951 -0.35285053 46
-3.8864808 -14.216326 0 14
-3.9012518 -14.270356 0.34347337 21
-4.0429468 -14.788662 0.71496248 21
-1.3145542 -4.808497 -1.5555019 14
-1.3830376 -5.0590019 -1.5038775 15
-3.9227145 -14.348866 1.3878056 30
-1.4842191 -5.4291124 -1.4734169 24
-3.7129765 -13.581666 1.6465524 8
-1.5786039 -5.7743621 -1.4184008 21
-3.9614697 -14.490627 2.1112561 15
-1.6761082 -6.1310225 -1.3510102 22
-4.0463619 -14.801154 2.5209744 9
-1.8114254 -6.6259985 -1.2942132 17
-5.0730281 -18.556587 3.6245375 10
-1.887181 -6.8188181 -1.1624042 15
-2.0523517 -7.4156179 -1.0813751 19
-2.1533382 -7.7805047 -0.9440729 20
-2.3477314 -8.482892 -0.82116473 36
-2.5144942 -9.0854445 -0.6591987 22
-3.906605 -14.11546 -0.68300629 22
-4.0537944 -14.647288 -0.35285053 28
-3.9679294 -14.337039 0.34537667 21
-4.0904517 -14.77974 0.71514887 21
-1.3265983 -4.793304 -1.5519274 14
-4.0423484 -14.605932 1.0597403 15
-1.3948212 -5.0398088 -1.4994673 16
-3.8769436 -14.008286 1.3560365 15
-1.4986869 -5.4150996 -1.4708843 22
-3.7116468 -13.411032 1.6272713 8
-1.5931027 -5.7562456 -1.4151729 25
-1.694839 -6.1238418 -1.3505945 25
-4.064414 -14.685659 2.5034652 14
-1.8248929 -6.5937562 -1.289029 14
-4.0518808 -14.640374 2.8620813 10
-1.8886682 -6.7508025 -1.1517043 12
-2.048506 -7.3221216 -1.0685712 26
-2.1590006 -7.7170711 -0.93710393 20
-2.3692644 -8.4686317 -0.8204217 40
-3.8713305 -13.837575 -1.0047722 10
-3.9406245 -14.085257 -0.68207461 28
-4.0181851 -14.362488 -0.34625867 12
-3.9777765 -14.218052 0 14
-3.990711 -14.264285 0.34389117 21
-1.3322625 -4.7620015 -1.5429913 13
-4.0594683 -14.510049 1.0536019 37
-1.4026736 -5.0136771 -1.4928521 14
-3.9010239 -13.943709 1.3508346 13
-1.5111961 -5.401577 -1.4683518 16
-3.7255337 -13.316442 1.6170502 10
-1.609695 -5.7536483 -1.415634 29
-4.1151543 -14.709091 2.146606 12
-1.7066622 -6.1002455 -1.3464363 22
-5.1725688 -18.488684 3.154217 13
-1.8342966 -6.556458 -1.2827338 14
-4.0615053 -14.51733 2.8402333 9
-1.8947184 -6.695796 -1.1432739 15
-2.0535045 -7.2569346 -1.0599424 23
-2.1689067 -7.6647573 -0.93152869 20
-2.3629324 -8.3504305 -0.80964619 15
-3.9123697 -13.826028 -1.0047722 12
-3.9862058 -14.08696 -0.6827268 39
-4.0950789 -14.471709 -0.34918323 21
-4.0607858 -14.35052 0 21
-4.0292048 -14.238914 0.34356621 26
-4.0808563 -14.421448 0.69893777 30
-1.3422267 -4.743331 -1.5382252 14
-4.07371 -14.396194 1.0462077 15
-1.3845649 -4.892951 -1.4581218 18
-3.9418356 -13.930159 1.3506489 13
-1.5182604 -5.3654213 -1.4597414 14
-3.8391271 -13.567194 1.6488755 8
-1.6241095 -5.7394838 -1.4133284 23
-4.0973024 -14.479568 2.1148746 12
-1.7215582 -6.0838604 -1.3439413 20
-4.068862 -14.37906 2.4551532 9
-1.8334059 -6.4791222 -1.2686622 13
-5.5350022 -19.560293 3.8300564 11
-1.9041843 -6.6582212 -1.1377618 21
-2.0884659 -7.3025851 -1.0674578 13
-2.1761012 -7.6090131 -0.92548883 17
-2.356127 -8.2384958 -0.79942805 15
-3.980484 -13.918265 -0.67508709 59
-4.0843468 -14.281435 -0.34486601 18
-4.1178932 -14.398735 0 10
-4.0777493 -14.258365 0.34430894 26
-4.1156206 -14.390788 0.69800615 28
-1.3517929 -4.7267151 -1.534055 18
-4.1122513 -14.379006 1.045789 15
-1.3839504 -4.8391576 -1.4432372 18
-3.9911251 -13.955474 1.3541788 15
-1.5252578 -5.3332567 -1.4521438 11
-3.857336 -13.487663 1.6405126 19
-1.6288937 -5.6956329 -1.4036449 12
-4.1654954 -14.565182 2.1290703 12
-1.7310106 -6.0526972 -1.3381197 13
-4.1448164 -14.492874 2.4765532 4
-1.8304158 -6.4002805 -1.2542204 14
-5.5879836 -19.539091 3.8289454 8
-1.920578 -6.6452942 -1.1364648 25
-2.1028011 -7.275795 -1.0643959 17
-2.1813459 -7.547564 -0.91875207 12
-2.7021544 -9.3495874 -0.68054414 25
-3.9816153 -13.776585 -0.66875178 18
-4.0914574 -14.156643 -0.34212714 24
-4.1680808 -14.421764 0 14
-4.0670304 -14.072125 0.34008458 20
-4.1502433 -14.360044 0.69707447 20
-1.3618063 -4.7119164 -1.5304805 18
-4.1972575 -14.522717 1.0570896 15
-1.3969244 -4.833427 -1.442686 16
-4.0245509 -13.925143 1.3523209 11
-1.5299381 -5.2936606 -1.4425201 13
-3.9038098 -13.507374 1.6442294 23
-1.6323645 -5.6480613 -1.3930392 14
-4.1764579 -14.450749 2.1140397 15
-1.7364992 -6.0083728 -1.3293875 10
-4.1074615 -14.212019 2.430511 9
-1.83955 -6.3649335 -1.2482954 17
-5.3789515 -18.611437 3.6500885 10
-1.9363618 -6.6304331 -1.1348437 28
-2.0836916 -7.1349149 -1.0446334 23
-2.1829243 -7.4747047 -0.91062152 15
-2.2547276 -7.7205715 -0.75038111 33
-2.7265751 -9.3362589 -0.68012559 43
-4.0749574 -13.953349 -0.67788208 40
-4.1489115 -14.20658 -0.34361264 21
-4.1601214 -14.244966 0 17
-4.0844522 -13.985862 0.33827415 20
-4.198729 -14.377165 0.69847196 8
-1.3733538 -4.7025976 -1.5286933 20
-4.3770623 -14.987807 1.0918283 16
-1.4163451 -4.8498068 -1.44875 13
-4.0701208 -13.936789 1.3545504 11
-1.5360367 -5.2596517 -1.4344162 15
-3.9888487 -13.658498 1.663975 8
-1.6432208 -5.626668 -1.3888891 18
-4.1857052 -14.332568 2.0984523 12
-1.7483356 -5.9865994 -1.3256451 15
-5.4295583 -18.591734 3.1821017 10
-1.8496039 -6.3333592 -1.2431113 17
-4.3256602 -14.811798 2.9072583 6
-1.9510316 -6.6034975 -1.131277 23
-2.0965564 -7.0960436 -1.0399015 24
-2.1906364 -7.4144683 -0.90411711 17
-2.2806647 -7.7191796 -0.75093848 56
-2.7581546 -9.3353004 -0.68068367 43
-4.0638642 -13.754629 -0.66884488 15
-4.2031541 -14.226071 -0.34440181 21
-4.2309213 -14.320054 0 14
-4.1187396 -13.940362 0.33748499 20
-1.385416 -4.6891046 -1.5257145 21
-4.4597421 -15.094524 1.1006176 16
-1.4353878 -4.8582397 -1.4526091 15
-4.1088076 -13.906745 1.3528783 22
-1.5355586 -5.1972795 -1.4187146 15
-4.0109138 -13.575412 1.6553799 8
-1.6608896 -5.6214776 -1.3888891 18
-4.1863794 -14.169296 2.076463 11
-1.7588202 -5.9529347 -1.3194077 16
-4.2879076 -14.512931 2.4862804 4
-1.8616956 -6.3011293 -1.237927 17
-5.7237535 -19.372721 3.8059869 8
-1.9627247 -6.567081 -1.1260891 20
-2.1199729 -7.0932183 -1.0404582 19
-2.2031105 -7.3713875 -0.89970332 25
-2.302052 -7.7024364 -0.75000954 42
-2.7920384 -9.3418818 -0.68179977 40
-4.1247897 -13.801135 -0.67173308 15
-4.2524056 -14.228125 -0.34477317 18
-4.2535515 -14.231958 0 14
-4.3274107 -14.479085 0.35085443 21
-4.2392082 -14.183968 0.69036645 6
-1.3974067 -4.6755834 -1.5227358 22
-4.484858 -15.005888 1.0951767 16
-1.4533955 -4.8629165 -1.4553653 24
-4.1302361 -13.819358 1.3456327 19
-1.5302706 -5.1201329 -1.3989609 15
-4.0068965 -13.406675 1.6363311 6
-1.6724113 -5.5957217 -1.3838168 16
-4.3114057 -14.425533 2.115988 9
-1.7730311 -5.9323854 -1.3160812 16
-4.3560848 -14.575025 2.4992499 4
-1.8696625 -6.2557044 -1.2301507 14
-4.4124484 -14.763612 2.9031849 7
-1.9673692 -6.5203533 -1.1189559 13
-2.1305268 -7.0610981 -1.0365614 13
-2.214942 -7.3408713 -0.89668345 25
-2.3216345 -7.6944766 -0.74982375 29
-2.8199444 -9.3460007 -0.68263686 24
-4.1626391 -13.796026 -0.67201257 12
-4.2931066 -14.228428 -0.34505171 15
-4.3092842 -14.282045 0 14
-4.2261081 -14.006378 0.33966681 25
-4.2220807 -13.993031 0.6816088 9
-1.4090914 -4.6700807 -1.52214 21
-4.5108738 -14.950163 1.0919678 16
-1.4666773 -4.8609352 -1.4559165 33
-4.1612248 -13.791339 1.3439606 17
-1.5369635 -5.0938811 -1.3928831 22
-4.0425563 -13.398043 1.6365635 6
-1.6786231 -5.5633764 -1.3769 16
-4.3199806 -14.317495 2.1017923 12
-1.7755591 -5.8846464 -1.3065172 11
-5.5178695 -18.2876 3.1383293 10
-1.8690016 -6.1943383 -1.2190415 13
-4.451653 -14.753891 2.9035554 6
-1.9751717 -6.4726129 -1.1118226 13
-2.1313114 -6.9842806 -1.0262625 12
-2.2304561 -7.3091769 -0.89366353 25
-2.3277783 -7.6281004 -0.74406445 18
-2.8644323 -9.3867092 -0.68626416 10
-4.2001295 -13.763772 -0.67108095 12
-4.3255301 -14.174708 -0.34407684 18
-4.3237777 -14.168965 0 17
-4.2315731 -13.866813 0.33660299 20
-4.2660208 -13.979697 0.6816088 7
-1.4220843 -4.6601524 -1.5203527 20
-1.4808192 -4.8526258 -1.4548141 33
-4.2004628 -13.764865 1.3426602 14
-1.5518296 -5.0853262 -1.3918699 40
-1.697229 -5.5617981 -1.3778223 22
-4.3903742 -14.387201 2.1140397 12
-1.7717693 -5.806066 -1.2903001 10
-4.4071269 -14.4421 2.4807684 9
-1.8678013 -6.1207619 -1.2057105 14
-5.5649695 -18.236336 3.5923212 10
-1.9828136 -6.4372425 -1.1066347 12
-2.1315141 -6.920001 -1.0176338 16
-2.2431502 -7.2824302 -0.89110821 25
-2.3383601 -7.5915308 -0.74109191 29
-4.2656584 -13.848542 -1.0132825 36
-4.213798 -13.680176 -0.66754055 15
-4.3755713 -14.205377 -0.34509814 15
-4.3278842 -14.05056 0 28
-4.3255415 -14.042953 0.34115228 20
-4.339653 -14.088767 0.68747824 10
-1.4337168 -4.6545892 -1.519757 20
-4.5340605 -14.719914 1.07704 24
-1.4906875 -4.8395457 -1.4520576 29
-4.2312069 -13.736694 1.3409882 12
-1.563428 -5.0756989 -1.3903505 42
-4.1471381 -13.463763 1.6474817 25
-1.7123557 -5.559196 -1.3782834 20
-6.1974816 -20.120243 2.9588203 23
-1.7668065 -5.735971 -1.2757462 16
-5.6184564 -18.240427 3.1357353 13
-1.8710896 -6.0745282 -1.1975639 15
-4.4439821 -14.427474 2.8443067 6
-1.9978515 -6.4222584 -1.1050135 16
-2.1414177 -6.8837633 -1.0131803 19
-2.2587578 -7.2609634 -0.88924974 25
-2.3560021 -7.5735631 -0.73997724 33
-4.3108344 -13.857532 -1.0148171 36
-4.2531714 -13.672171 -0.66772687 15
-4.4051275 -14.160645 -0.34430894 18
-4.3682933 -14.042238 0 24
-4.3861217 -14.09955 0.34282348 26
-1.4410385 -4.6323371 -1.5137995 18
-4.4512892 -14.309035 1.0478817 11
-1.5041968 -4.8353643 -1.4520576 27
-4.2772412 -13.749544 1.3434033 12
-1.5770217 -5.0694661 -1.3898439 42
-4.1670189 -13.395226 1.6405126 8
-1.7076411 -5.4893532 -1.3621444 13
-6.2518811 -20.097187 2.9579854 29
-1.7746825 -5.7048631 -1.2699248 18
-4.4594059 -14.335128 2.4665017 9
-1.8798728 -6.0430059 -1.1923796 19
-6.0138412 -19.331987 3.8145037 8
-2.0120966 -6.3971238 -1.1017711 17
-2.1523368 -6.8429947 -1.00817 17
-2.2767899 -7.2386718 -0.88739139 27
-4.3615313 -13.866758 -1.0164913 34
-4.2853136 -13.624436 -0.6660499 18
-4.464591 -14.194419 -0.3454695 18
-4.456193 -14.167719 0 14
-4.3974004 -13.980798 0.34027028 20
-4.4579492 -14.173303 0.69288194 8
-1.4527202 -4.6186805 -1.5108207 13
-4.5123835 -14.346367 1.0516486 18
-1.5182266 -4.8269467 -1.4509552 27
-4.3132463 -13.713243 1.3411739 12
-1.5911987 -5.0589495 -1.3883245 43
-4.206697 -13.374489 1.6395833 12
-1.705609 -5.422698 -1.3469274 11
-6.3120165 -20.067999 2.9565938 23
-1.7879006 -5.68433 -1.2665982 26
-5.7526536 -18.289597 3.1500018 13
-1.8941306 -6.0220709 -1.1894171 19
-6.0733657 -19.309248 3.8137631 14
-1.9998884 -6.2892103 -1.0842621 23
-2.1636209 -6.8041134 -1.0034381 19
-2.2941012 -7.2144456 -0.88530064 27
-2.3637135 -7.4333606 -0.72771549 4
-4.4080958 -13.862494 -1.0171889 23
-4.3111429 -13.557598 -0.66344124 12
-4.4952254 -14.136497 -0.34440181 24
-4.521286 -14.218452 0 14
-4.4231224 -13.90975 0.33887762 25
-4.5248537 -14.229672 0.69632912 12
-1.4585445 -4.5868025 -1.5018846 9
-4.5568261 -14.330218 1.051509 15
-1.5322179 -4.8184891 -1.4498526 24
-4.3400126 -13.648387 1.3361577 12
-1.6041521 -5.0447063 -1.3857919 43
-4.3088899 -13.550513 1.6628135 36
-1.7108412 -5.3802204 -1.3377049 13
-4.4544787 -14.008358 2.0658858 14
-1.7956711 -5.6469917 -1.2595291 22
-6.8201938 -21.448013 3.6976449 13
-1.9076793 -5.9992332 -1.1860844 19
-6.1375699 -19.30131 3.815985 8
-2.0151412 -6.2801952 -1.0836136 22
-2.1735606 -6.77391 -0.99981964 20
-2.3069122 -7.1894999 -0.88297766 25
-4.4455929 -13.854707 -1.0174679 34
-4.3594408 -13.586213 -0.6653977 15
-4.5401635 -14.149436 0 14
-4.4564695 -13.888604 0.33864555 30
-4.5437803 -14.160707 0.69353414 10
-4.1450748 -12.91814 0.94868803 6
-1.5418907 -4.8053083 -1.4470962 22
-4.4250112 -13.790564 1.3512062 18
-1.6167628 -5.0386472 -1.3852854 42
-4.5907612 -14.307124 1.7571278 11
-1.7154077 -5.3460746 -1.3303272 16
-4.4875073 -13.985332 2.0642157 11
-1.8026789 -5.6180558 -1.2541233 13
-6.2444053 -19.460712 3.3578405 15
-1.8951561 -5.906261 -1.1686801 13
-4.2484884 -13.240429 2.6199024 4
-2.0404599 -6.2948394 -1.0871803 16
-2.1857104 -6.742939 -0.99620116 20
-2.322108 -7.1637273 -0.88065463 25
-4.3246799 -13.341681 -1.3084759 12
-4.4860654 -13.839558 -1.0173284 34
-4.4052768 -13.590324 -0.66623622 18
-4.511838 -13.919066 -0.33971322 11
-4.6468792 -14.33567 0 14
-4.494575 -13.86581 0.33841342 30
-4.5679102 -14.092051 0.69083232 16
-1.554363 -4.7952261 -1.4454424 20
-4.4456453 -13.714861 1.3450754 8
-1.6287223 -5.0246253 -1.3827529 42
-4.4635191 -13.770003 1.6927804 18
-1.7174599 -5.2983818 -1.3197213 20
-4.5753956 -14.115143 2.0853701 12
-1.7970204 -5.5438266 -1.2387379 12
-6.7530518 -20.833235 3.5981028 17
-1.9053991 -5.8781757 -1.1642364 16
-4.4732037 -13.799879 2.7332156 4
-2.0543473 -6.2778635 -1.0852348 16
-2.1965234 -6.7123389 -0.99258268 20
-2.3340719 -7.1326714 -0.8776347 22
-4.3681121 -13.348479 -1.3103337 18
-4.5358629 -13.861108 -1.0198396 23
-4.4382386 -13.562778 -0.66549087 15
-4.5338988 -13.855106 0.33845985 20
-1.5563869 -4.7561502 -1.4349682 15
-4.4901195 -13.721321 1.3469332 12
-1.6403401 -5.0127025 -1.3807268 42
-1.6783807 -5.1289506 -1.2786819 15
-4.6843977 -14.315014 2.116823 24
-1.8058016 -5.5183349 -1.2341639 20
-4.6715379 -14.275715 2.4677987 19
-1.9175274 -5.8597569 -1.1616443 16
-2.06863 -6.2586231 -1.0829651 13
-2.2095931 -6.6851063 -0.98952079 19
-2.3346527 -7.0634732 -0.86996877 20
-4.4126987 -13.350585 -1.31182 25
-4.5738401 -13.838117 -1.019142 23
-4.4853587 -13.570416 -0.66651571 18
-4.6760187 -14.147257 0 14
-4.6559343 -14.086493 0.34444824 42
-4.7718854 -14.437301 0.70909303 26
-4.2676654 -12.911787 0.95092028 9
-1.5686821 -4.7460351 -1.4333143 18
-4.5264382 -13.694702 1.3456327 10
-1.6545991 -5.0059762 -1.3802204 42
-4.5215583 -13.679939 1.6848822 11
-1.6819874 -5.0888395 -1.2699206 15
-4.7206359 -14.282247 2.1140397 51
-1.8215535 -5.5110955 -1.2337481 22
-1.9293545 -5.8372464 -1.1583116 16
-2.0864062 -6.2464781 -1.0819924 17
-2.218663 -6.6424403 -0.98423225 15
-2.3486507 -7.03161 -0.86694884 25
-4.4426332 -13.30077 -1.3082901 15
-4.6134992 -13.812325 -1.0183049 21
-4.4189162 -13.229764 -0.32383704 11
-4.6627817 -13.959871 0 21
-4.7375393 -14.183687 0.3471871 43
-4.7070885 -14.092521 0.69288194 32
-4.2848215 -12.828298 0.94575828 12
-1.5799302 -4.7301426 -1.4300066 27
-1.6690918 -4.9970827 -1.3792074 42
-4.4468293 -13.313334 1.6414418 38
-1.6955003 -5.0761471 -1.2680761 19
-4.7610903 -14.254195 2.1120911 30
-1.8295617 -5.4775124 -1.2275107 19
-4.753655 -14.231936 2.4652047 49
-1.9433247 -5.8181071 -1.1557194 15
-4.7297325 -14.160315 2.8128307 16
-2.0989704 -6.2297726 -1.0800469 20
-2.2240291 -6.6009483 -0.97894371 15
-2.3569021 -6.9953175 -0.86323202 22
-4.471715 -13.27211 -1.3066181 12
-4.6228871 -13.720791 -1.0124454 42
-4.7076049 -13.972234 -0.68757141 16
-4.4707713 -13.269309 -0.32509041 16
-4.7210221 -14.012057 0 14
-4.7835913 -14.197763 0.347837 43
-4.666142 -13.849173 0.68151563 9
-4.3292189 -12.84918 0.94813001 9
-1.5898522 -4.7187028 -1.4278016 31
-1.6821676 -4.9926963 -1.3792074 36
-1.7050546 -5.0606251 -1.2653093 21
-4.525207 -13.430875 1.9918455 16
-1.8345252 -5.4448957 -1.2212733 20
-4.7997179 -14.245626 2.4697442 16
-1.9554114 -5.8036871 -1.153868 15
-4.7730608 -14.16651 2.8165338 9
-2.1093707 -6.2033343 -1.0764803 20
-2.2226884 -6.5365839 -0.97031492 15
-2.3719516 -6.9755435 -0.86160594 25
-4.5363274 -13.340639 -1.3146068 12
-4.6258588 -13.603937 -1.0047722 80
-4.7228079 -13.88905 -0.68412429 26
-4.5271206 -13.313563 -0.32648307 11
-4.75949 -13.996925 0 17
-4.7575641 -13.991261 0.34310198 21
-4.7163758 -13.870134 0.68319261 16
-4.4267449 -13.018374 0.96152323 9
-1.5925015 -4.6833014 -1.41843 29
-4.4504223 -13.088006 1.2897117 6
-1.6923664 -4.9769888 -1.3761684 28
-4.6473365 -13.6671 1.6881343 15
-1.7154211 -5.0447888 -1.2625426 21
-4.5499439 -13.380684 1.9862787 27
-1.8453147 -5.4267864 -1.2183626 20
-4.8255029 -14.191061 2.4626107 14
-1.9659163 -5.7814565 -1.1505352 15
-4.8145018 -14.158708 2.8176446 7
-2.1211543 -6.1742787 -1.0725894 17
-2.2284129 -6.4864879 -0.96391296 21
-2.3512571 -6.8440642 -0.84627402 15
-4.6144495 -13.431788 -1.3250107 21
-4.596621 -13.379894 -0.98928636 27
-4.6359477 -13.494366 -0.6653977 12
-4.5435886 -13.225527 -0.32467264 11
-4.7592525 -13.853283 0 28
-4.7755108 -13.900607 0.34124514 20
-4.7625241 -13.862806 0.68356526 20
-4.4170604 -12.857226 0.95064121 12
-1.580972 -4.6019101 -1.3952764 27
-1.7023363 -4.9551787 -1.3716098 19
-4.6399083 -13.505896 1.6700147 14
-1.7262031 -5.0246501 -1.2588537 21
-4.5951767 -13.37569 1.9876704 27
-1.8528206 -5.3932099 -1.2121253 14
-7.3175979 -21.300142 3.7002389 9
-1.9770457 -5.7548056 -1.1464618 13
-7.1438012 -20.794254 4.1425934 13
-2.1204817 -6.1097865 -1.0625379 17
-2.2429357 -6.4626155 -0.9614079 23
-2.3538585 -6.7822204 -0.83953726 17
-4.7108164 -13.57337 -1.3404307 18
-4.632091 -13.346538 -0.9878912 30
-4.6285357 -13.336293 -0.65831709 24
-4.8499651 -13.974302 0 28
-4.7962122 -13.819423 0.33962038 20
-4.8067074 -13.849663 0.68365842 24
-4.4234147 -12.745274 0.9433865 12
-1.5916394 -4.5860229 -1.3919687 27
-4.5299573 -13.052258 1.2889686 22
-1.7096484 -4.9260445 -1.3650253 14
-4.7161846 -13.588838 1.6820945 25
-1.7413419 -5.017364 -1.2583926 28
-4.6631498 -13.436028 1.9988042 22
-1.8652649 -5.3744254 -1.2092146 16
-7.4233031 -21.388914 3.7196932 19
-1.9867378 -5.7244277 -1.1416479 13
-7.1826725 -20.69558 4.1274109 9
-2.1243265 -6.0729189 -1.0570259 18
-2.2541423 -6.4440298 -0.95945948 25
-2.3527143 -6.7258224 -0.83326513 17
-4.7222695 -13.499789 -1.3342998 12
-4.6785226 -13.374727 -0.99082094 25
-4.6775994 -13.372088 -0.66064626 18
-4.5896544 -13.120676 -0.32272291 13
-4.809474 -13.749085 0 10
-4.8180814 -13.773691 0.33878478 20
-4.8425131 -13.843534 0.68393797 20
-4.4328046 -12.672281 0.93878257 12
-1.5977621 -4.5676031 -1.3875586 29
-4.5664387 -13.054308 1.290269 20
-1.7095416 -4.8871522 -1.3554018 12
-4.7132993 -13.474145 1.669318 17
-1.7561667 -5.020442 -1.260237 38
-4.7234321 -13.503112 2.0104947 13
-1.871286 -5.3495393 -1.2046404 14
-7.4996538 -21.439638 3.7316904 19
-1.9922829 -5.6954389 -1.1368339 12
-4.7983518 -13.717289 2.7380295 12
-2.1331351 -6.0405359 -1.0524864 22
-2.2653382 -6.4149032 -0.9561193 23
-2.362076 -6.6888423 -0.8295483 20
-4.7815328 -13.540173 -1.3396876 15
-4.7002478 -13.309993 -0.98705411 22
-4.5968447 -13.01718 -0.64378303 12
-4.5033956 -12.752554 -0.31399566 23
-4.85957 -13.761157 0 14
-4.8509369 -13.73671 0.33822772 20
-4.8955398 -13.863014 0.68561494 22
-4.576015 -12.958196 0.96096522 13
-1.6087464 -4.5555906 -1.3853533 22
-4.6051507 -13.040702 1.290269 20
-1.7150148 -4.8565173 -1.3483107 10
-4.7724385 -13.514421 1.6760546 14
-1.7691106 -5.0097041 -1.2588537 36
-4.7746859 -13.520785 2.0152266 22
-1.8773787 -5.3162937 -1.1984031 16
-4.754539 -13.463733 2.3458841 6
-1.9888843 -5.6320515 -1.1253544 16
-7.2598534 -20.558193 4.1077847 15
-2.1448088 -6.0133572 -1.0489198 21
-2.2788267 -6.3891006 -0.95333582 22
-2.3617234 -6.6215162 -0.82211471 12
-4.7778873 -13.395666 -1.3268685 50
-4.7715311 -13.377845 -0.99319267 20
-4.5279875 -12.695027 -0.31292796 18
-4.8772469 -13.674238 0 13
-4.8933973 -13.71952 0.33818132 20
-4.93437 -13.834394 0.68496275 22
-5.3177872 -14.909372 1.1068957 24
-4.6367316 -12.999911 1.2876681 22
-1.7133641 -4.8037243 -1.3351417 12
-4.8429008 -13.577944 1.6858114 27
-1.7874558 -5.0114536 -1.2606982 38
-4.8311124 -13.544892 2.0210719 31
-1.8848703 -5.2845731 -1.1925815 16
-4.7716198 -13.378094 2.3335629 6
-1.9946835 -5.592454 -1.1186891 21
-7.3144994 -20.507515 4.1022301 12
-2.1529059 -5.9832039 -1.0447047 20
-2.2906241 -6.3659396 -0.9508307 22
-2.3459036 -6.5195694 -0.81026733 10
-4.7626863 -13.23612 -1.3123773 18
-4.7845511 -13.296885 -0.98817021 35
-4.6029854 -12.792291 -0.63400048 11
-4.5945606 -12.768877 -0.31506336 15
-4.8910356 -13.592819 0 13
-4.7218304 -13.122576 0.32379061 19
-4.8092909 -13.365641 0.6624164 7
-4.6770606 -12.998156 1.2887828 16
-1.7202209 -4.7807159 -1.3300766 14
-4.7940369 -13.323248 1.6558444 23
-1.8001252 -5.0027804 -1.2597759 36
-4.8555059 -13.494078 2.0155051 19
-1.8929965 -5.2608819 -1.1884233 19
-4.8216548 -13.400001 2.3397236 9
-2.0029726 -5.5665197 -1.1146157 21
-2.1636043 -5.9541516 -1.0408138 18
-2.3045247 -6.341959 -0.94832557 21
-2.3629823 -6.5028319 -0.80910581 15
-4.7865634 -13.17243 -1.307547 18
-4.8699112 -13.401799 -0.99709904 22
-4.5455804 -12.509254 -0.62067765 23
-4.6223621 -12.720554 -0.31422779 10
-4.7042084 -12.945792 0 12
-4.7705455 -13.128348 0.32430127 19
-4.9339619 -13.578064 1.0102133 10
-4.7267146 -13.007729 1.291198 14
-1.721355 -4.7370996 -1.31944 11
-4.801949 -13.21477 1.6442294 19
-1.8164979 -4.998929 -1.260237 35
-4.9425187 -13.601612 2.0338757 11
-1.9055063 -5.2438765 -1.1859285 20
-2.0170944 -5.5509624 -1.1127641 22
-4.8833151 -13.438687 2.6939633 9
-2.1717169 -5.9280834 -1.0372472 18
-2.3129442 -6.3135881 -0.94498545 20
-2.3786314 -6.4928932 -0.8086412 15
-4.8258271 -13.172944 -1.3088475 25
-4.567318 -12.467299 -0.619187 16
-4.6253848 -12.625802 -0.31218523 18
-4.7346435 -12.924043 0 21
-4.7739472 -13.031329 0.32221228 19
-4.831213 -13.187647 0.65496302 7
-4.9640007 -13.550115 1.0090971 14
-4.7765069 -13.038316 1.2954711 14
-1.7237674 -4.7053266 -1.3118426 13
-4.818078 -13.151792 1.6379572 29
-1.8289092 -4.9923296 -1.2597759 29
-4.9842415 -13.605364 2.036381 17
-1.9158632 -5.2296858 -1.1838492 22
-2.0275631 -5.5345907 -1.1105423 17
-4.9955535 -13.636242 2.7361779 12
-2.1803999 -5.8975496 -1.0330319 13
-2.3227389 -6.2825484 -0.94136697 17
-2.4068413 -6.5100288 -0.81166112 12
-3.8974373 -10.541795 -1.0485642 12
-5.0138702 -13.561525 -1.0110503 15
-4.62923 -12.52115 -0.62254095 11
-4.6870942 -12.677661 -0.31380996 15
-4.7812924 -12.932448 0 12
-4.7987251 -12.9796 0.32128385 18
-4.8495378 -13.117039 0.65216804 22
-4.97651 -13.460473 1.0035167 14
-4.8200059 -13.037161 1.2967715 18
-1.7316827 -4.6838584 -1.307284 17
-4.857769 -13.139302 1.6381896 27
-1.8403398 -4.9777546 -1.2574704 21
-5.1502719 -13.930465 2.0873184 21
-1.9259448 -5.2092991 -1.1805227 22
-4.9096637 -13.279668 2.3261054 9
-2.04125 -5.5211763 -1.1090611 17
-4.8833241 -13.208424 2.6532297 16
-2.1875405 -5.8633189 -1.0281684 17
-2.3275228 -6.2385168 -0.93580002 16
-2.4685028 -6.6163888 -0.82583147 15
-4.8175969 -12.912724 -1.2858104 36
-3.9368446 -10.552022 -0.78755063 17
-4.6607733 -12.492386 -0.62179565 11
-4.71071 -12.626232 -0.31288153 15
-4.8434114 -12.981915 0 19
-4.8511925 -13.002771 0.32221228 19
-4.884943 -13.093233 0.65170223 22
-4.890686 -13.108626 1.3053176 12
-1.7415141 -4.6678233 -1.3042449 17
-4.8967319 -13.124831 1.6381896 29
-1.8476176 -4.9522152 -1.252398 15
-5.1500425 -13.803786 2.0706174 37
-1.9283993 -5.1687365 -1.1726221 22
-4.9925041 -13.381532 2.3465326 9
-2.050065 -5.4948397 -1.1049879 13
-5.0344763 -13.494031 2.7135894 9
-2.2028413 -5.8512621 -1.0271957 20
-2.3243904 -6.1741242 -0.92717123 13
-2.4895225 -6.6127539 -0.82629609 20
-4.8769364 -12.954284 -1.2913837 24
-5.0211487 -13.337346 -0.99654096 22
-3.858067 -10.247929 -0.51064759 53
-4.7418108 -12.595359 -0.31246376 15
-4.8713374 -12.939411 0 29
-4.9228606 -13.076269 0.32439411 19
-4.9371433 -13.114207 0.65347236 13
-5.0851169 -13.50726 1.0092367 21
-4.9042993 -13.026966 1.2986294 16
-1.7519475 -4.6535826 -1.3017125 14
-4.9384508 -13.117681 1.6391187 25
-1.846532 -4.9048209 -1.2417923 16
-5.0528102 -13.421445 2.0155051 13
-1.942348 -5.1593308 -1.1717904 24
-4.9960275 -13.270617 2.3296721 9
-2.0628967 -5.4795361 -1.1031362 12
-5.1548181 -13.692403 2.7565446 6
-2.2118511 -5.8288679 -1.0242774 18
-2.3300068 -6.1402421 -0.9229961 21
-2.5075314 -6.6080704 -0.82652837 20
-4.9355621 -13.006635 -1.2978863 27
-5.0256133 -13.243945 -0.99054193 22
-4.6843996 -12.344748 -0.61573976 22
-4.0185819 -10.590125 -0.26297835 6
-4.8973918 -12.906045 0 12
-4.8797565 -12.859571 0.31933415 18
-4.9991031 -13.174083 0.65710586 13
-5.15727 -13.590899 1.0164913 21
-4.9235516 -12.974983 1.2947279 16
-1.7545149 -4.6236544 -1.2946215 13
-5.014358 -13.214284 1.6528245 17
-1.8365822 -4.8399253 -1.2265754 11
-5.0780935 -13.382246 2.0116081 11
-1.9509904 -5.1414242 -1.1688796 24
-5.0510583 -13.311001 2.3390749 9
-2.0709598 -5.4575782 -1.0998034 13
-5.0288763 -13.252544 2.670634 9
-2.2143171 -5.7835751 -1.0174685 11
-2.3404248 -6.112956 -0.91993427 21
-2.5207341 -6.5839057 -0.82443774 25
-4.9698586 -12.980775 -1.2967715 33
-4.9243526 -12.861918 -0.96305788 33
-4.0502501 -10.578849 -0.52825612 9
-4.6948366 -12.262445 -0.30485061 30
-4.8419833 -12.646778 0 12
-4.9107404 -12.826365 0.31886992 13
-5.0695987 -13.241285 0.66120517 7
-4.9193592 -12.848876 0.96208131 6
-4.9634504 -12.964038 1.2950995 16
-1.7578485 -4.5913248 -1.2870239 14
-5.0450191 -13.177086 1.6500369 23
-1.8314507 -4.7835665 -1.2136642 14
-5.1496429 -13.450354 2.0241337 17
-1.9648374 -5.1319594 -1.1680479 24
-5.1843805 -13.541084 2.382199 23
-2.0808187 -5.4348903 -1.0964708 13
-5.0871482 -13.287124 2.6806321 9
-2.211133 -5.7213645 -1.0077412 15
-2.3539066 -6.0907946 -0.9177075 20
-2.5371094 -6.5648365 -0.82304388 27
-5.0120511 -12.968813 -1.2971431 27
-4.9568243 -12.825913 -0.96152323 14
-4.7445974 -12.27677 -0.6137833 11
-4.7182016 -12.20847 -0.30387574 27
-4.8737602 -12.610983 0 21
-4.9488497 -12.805278 0.31873065 18
-5.103971 -13.206659 0.66027355 11
-5.011333 -12.966955 1.2969574 14
-1.7666844 -4.5713425 -1.2829719 16
-5.0828114 -13.151908 1.6488755 23
-1.8387527 -4.7578206 -1.2085917 16
-5.2118645 -13.485836 2.0319273 17
-1.9703724 -5.0983901 -1.1618106 19
-5.2510853 -13.58732 2.3932233 7
-2.0922146 -5.41366 -1.0935084 13
-4.9999185 -12.93742 2.6132367 6
-2.2175088 -5.6934886 -1.0038503 22
-2.3633747 -6.0680017 -0.91520238 20
-2.5499613 -6.5470657 -0.82165009 25
-5.0640531 -13.002036 -1.3017877 21
-4.9809723 -12.788725 -0.95970953 9
-4.7919474 -12.3034 -0.61573976 16
-4.7421641 -12.175581 -0.30336511 30
-4.9125652 -12.613089 0 25
-5.0186391 -12.885434 0.32105175 23
-5.1211262 -13.148572 0.65803754 28
-5.1656137 -13.262794 0.99528539 43
-5.0582719 -12.987192 1.3003014 16
-1.7723262 -4.5504756 -1.2784133 17
-5.104969 -13.107089 1.6449263 29
-1.8455518 -4.7384834 -1.2049029 16
-5.2636838 -13.514591 2.0383294 14
-1.974483 -5.0695162 -1.156405 19
-5.2049856 -13.363882 2.3562598 9
-2.094254 -5.3770304 -1.0872132 12
-5.1514654 -13.226468 2.6743369 18
-2.2317746 -5.67731 -1.0022291 25
-2.3744562 -6.0402713 -0.91214061 18
-2.5581627 -6.5075941 -0.81770098 22
-5.1099758 -12.999036 -1.3030882 18
-5.0225854 -12.776727 -0.95998859 16
-4.8693147 -12.386829 -0.62067765 14
-4.7760029 -12.149458 -0.30308658 22
-4.9675331 -12.636683 0 12
-5.0715318 -12.901239 0.32184091 50
-5.135366 -13.063624 0.65459037 22
-5.0795188 -12.921557 0.97087055 16
-5.1150756 -13.012009 1.3043886 16
-1.7866136 -4.5448852 -1.2784133 19
-5.1512089 -13.103927 1.6465524 12
-1.8511735 -4.7091165 -1.1989083 14
-5.3329258 -13.566188 2.0486281 34
-1.9832429 -5.0450816 -1.1522467 18
-5.2469444 -13.347465 2.3562598 9
-2.1032271 -5.3503036 -1.0831399 12
-5.136188 -13.065716 2.645083 10
-2.2415941 -5.6500916 -0.99866247 22
-2.3861172 -6.0143723 -0.90935713 17
-2.561013 -6.4552093 -0.81212568 25
-5.1507888 -12.982918 -1.3030882 21
-5.0612288 -12.757174 -0.95970953 16
-4.9317813 -12.430894 -0.62365896 14
-4.810462 -12.1251 -0.30285448 10
-5.0256467 -12.667488 0 31
-5.0744328 -12.790457 0.31947342 23
-5.1528058 -12.988001 0.65160906 15
-5.1083169 -12.875864 0.96863842 26
-5.1030555 -12.862602 1.2910123 8
-1.7987425 -4.533854 -1.2768939 21
-3.8569036 -9.72159 1.2230669 5
-1.8573465 -4.6815696 -1.1933749 14
-5.3616428 -13.514389 2.0433397 20
-1.9940327 -5.0260968 -1.149336 19
-2.1098783 -5.3180933 -1.0779556 12
-5.1873579 -13.075091 2.6502674 9
-2.2505169 -5.6295428 -0.99606848 21
-2.3952377 -5.9915538 -0.90685201 20
-2.5756917 -6.4429493 -0.81142884 30
-5.1648011 -12.919463 -1.2980721 12
-5.0990524 -12.754996 -0.96054661 19
-4.9813652 -12.460608 -0.6258018 11
-4.8392196 -12.105039 -0.30266881 20
-5.1085343 -12.778714 0 21
-5.0811801 -12.71029 0.31780222 18
-5.1689911 -12.929944 0.64937305 17
-5.0709095 -12.684598 0.95524514 12
-5.1611052 -12.910218 1.2971431 22
-1.8070147 -4.5201468 -1.2743613 19
-1.8587602 -4.6495852 -1.1864581 13
-5.364656 -13.419388 2.0310924 25
-2.0028269 -5.0099602 -1.146841 19
-5.1010256 -12.759933 2.2576904 6
-2.1150386 -5.2906513 -1.073512 12
-5.3434091 -13.366241 2.7121081 4
-2.2435935 -5.5642705 -0.98569286 15
-2.4100416 -5.9770732 -0.90573859 22
-2.5799394 -6.3984323 -0.80678278 20
-5.1993871 -12.894849 -1.2971431 60
-5.1197138 -12.697253 -0.95733786 11
-5.0388637 -12.496738 -0.31283513 31
-5.1770906 -12.839552 0 22
-5.2033615 -12.904704 0.32304785 19
-5.2095733 -12.920111 0.64965254 12
-5.0719638 -12.578829 0.94840902 15
-5.1666212 -12.813586 1.2889686 18
-1.8146297 -4.5004101 -1.2703092 19
-5.1962786 -12.887138 1.6249484 19
-1.8616309 -4.6169767 -1.1795412 13
-3.8905802 -9.6489143 1.4621527 5
-2.0118301 -4.989481 -1.1435144 14
-5.2503037 -13.021125 2.3066509 18
-2.1197016 -5.25701 -1.0679573 12
-4.5179634 -11.204869 2.2762599 5
-2.2145348 -5.4482865 -0.96623838 14
-2.4207563 -5.9556413 -0.90351182 22
-2.5761046 -6.3378353 -0.80004609 20
-3.9531505 -9.7256985 -0.97945267 2
-5.1386228 -12.642244 -0.95426852 9
-5.1929722 -12.775956 -0.64313084 12
-5.0963278 -12.538189 -0.31422779 10
-5.2151837 -12.830603 0 26
-5.3861909 -13.251322 0.33210006 20
-5.3614821 -13.190532 0.66400021 3
-5.0882883 -12.51841 0.9449212 15
-5.1948838 -12.78066 1.2871108 10
-5.2113013 -12.821052 1.618444 10
-1.8642572 -4.5865197 -1.1730857 13
-3.8690341 -9.5187521 1.4440602 7
-2.0183887 -4.9657207 -1.1393563 11
-5.2517166 -12.920483 2.2914116 9
-2.1240125 -5.2255802 -1.0627731 13
-5.2641468 -12.951063 2.6339738 7
-2.2187145 -5.4124746 -0.96105051 18
-2.4151304 -5.891624 -0.8948831 12
-2.5783231 -6.2897272 -0.79493541 32
-3.9548004 -9.6475945 -0.97276437 9
-5.169302 -12.610328 -0.95301294 14
-5.2103992 -12.710582 -0.64061534 46
-5.1198583 -12.489711 -0.31339219 10
-5.2593012 -12.829877 0 13
-5.4527893 -13.301885 0.33377126 20
-5.5286608 -13.48697 0.67974544 9
-5.1117892 -12.470028 0.94240993 15
-5.2682838 -12.851789 1.2958426 18
-5.2365127 -12.774285 1.6144948 16
-1.8749057 -4.5737653 -1.1712412 16
-5.3418326 -13.03121 1.97932 11
-2.0219841 -4.9325581 -1.1331189 11
-5.287786 -12.899365 2.2904387 9
-2.1342902 -5.2065248 -1.060181 13
-2.2274096 -5.385416 -0.95748383 19
-2.4131892 -5.8345933 -0.88736778 17
-2.5585902 -6.1861424 -0.78285575 47
-5.2104511 -12.597794 -1.2718765 12
-5.2134676 -12.605087 -0.95385003 19
-5.1510401 -12.45415 -0.62850368 5
-5.1544843 -12.462479 -0.31311366 10
-5.311811 -12.842861 0 13
-4.3138719 -10.430051 0.26204991 3
-5.5572591 -13.436304 0.6780684 7
-5.1196756 -12.378318 0.93668991 25
-5.2614446 -12.721086 1.2843239 16
-5.2705441 -12.743087 1.6126364 28
-1.8825707 -4.5516672 -1.1670911 18
-5.4092379 -13.07842 1.9890621 24
-2.0277498 -4.9026804 -1.1277131 12
-5.3931527 -13.03953 2.3183236 9
-2.137115 -5.1671023 -1.0535154 13
-2.227252 -5.3427439 -0.95099902 14
-2.3989902 -5.7547097 -0.87623394 13
-2.5154712 -6.0341253 -0.76450396 30
-4.177485 -10.020972 -1.0128937 10
-5.2187066 -12.518661 -0.94840902 9
-5.2534451 -12.601992 -0.6367023 8
-5.2092686 -12.496019 -0.31432062 10
-5.4022923 -12.959046 0 61
-5.6216402 -13.485219 0.33920258 20
-5.1473126 -12.3474 0.93543434 30
-5.2440772 -12.579519 1.2715049 18
-5.3076367 -12.731986 1.613101 26
-1.8930273 -4.5410037 -1.1657077 16
-5.5166101 -13.233273 2.0149484 13
-2.0339053 -4.878942 -1.1235549 11
-5.3429747 -12.816755 2.2813601 9
-2.1417043 -5.1375308 -1.0487015 16
-5.5055108 -13.206648 2.6958146 13
-2.2312982 -5.3132391 -0.94678384 28
-2.392576 -5.6972795 -0.86844021 12
-2.5289528 -6.0220242 -0.763807 30
-4.233777 -10.081607 -1.0201393 10
-2.4658241 -5.8716998 -0.44532531 4
-5.2129331 -12.413205 -0.62785149 11
-5.3108678 -12.64641 -0.31845212 31
-5.4756947 -13.038901 0 13
-5.5771856 -13.280575 0.33442116 15
-5.3281918 -12.687662 0.64173335 7
-5.2112937 -12.409301 0.94115436 21
-5.2785354 -12.569419 1.2718765 16
-5.3678718 -12.782149 1.6212316 14
-1.8883319 -4.4965568 -1.1555631 12
-5.5320654 -13.173133 2.0079896 13
-2.0345521 -4.8447409 -1.1169018 12
-5.325314 -12.68081 2.2596359 13
-2.1513424 -5.1228461 -1.04685 16
-5.5446343 -13.203062 2.6980364 15
-2.2487488 -5.3080211 -0.94710815 40
-2.3919203 -5.645968 -0.8617599 15
-2.546309 -6.0103922 -0.76334244 25
-4.2739725 -10.088426 -1.0221829 10
-2.4865928 -5.8694358 -0.44574386 5
-4.1751609 -9.8551884 -0.24849479 7
-5.5868454 -13.187375 0 13
-5.6025 -13.224326 0.33344632 20
-5.4217973 -12.797791 0.64816183 10
-5.265039 -12.427773 0.9438051 25
-5.3521757 -12.633452 1.280051 16
-5.4273729 -12.81095 1.6270391 19
-5.5456085 -13.090037 1.9979693 11
-2.0383151 -4.811306 -1.1106644 10
-5.4775238 -12.929328 2.3069751 27
-2.1635919 -5.1070137 -1.0449984 16
-5.5193825 -13.028132 2.6658201 21
-2.2572155 -5.2894087 -0.9448384 37
-2.3367317 -5.4757419 -0.83670872 21
-2.5713921 -6.0256295 -0.76613003 17
-4.2730141 -10.013098 -1.0156806 10
-2.5074325 -5.8757505 -0.44672045 7
-5.5109587 -12.914015 -0.65477669 18
-5.5711813 -13.055136 -0.3295469 27
-5.6237073 -13.178222 0 13
-5.6135597 -13.154443 0.33205366 15
-5.4764562 -12.833164 0.65067738 8
-5.3367124 -12.505697 0.95078075 21
-5.4094625 -12.676175 1.2858104 22
-5.4679117 -12.813141 1.6291298 23
-5.5549855 -13.017183 1.9890621 11
-2.0416903 -4.7843614 -1.1056745 10
-4.508234 -10.564297 1.8870829 6
-2.171555 -5.0886779 -1.0424063 15
-5.5318727 -12.963023 2.6554515 9
-2.2689993 -5.2736244 -0.94321722 32
-2.3036542 -5.3541694 -0.81917292 16
-2.6041758 -6.0526433 -0.77054375 22
-5.3596883 -12.457025 -1.2651883 12
-2.5209122 -5.8591218 -0.4460229 9
-5.5247726 -12.840715 -0.65188855 48
-5.652564 -13.137729 -0.33205366 20
-5.6430211 -13.115549 0 13
-5.5066128 -12.798508 0.6497457 24
-5.3698506 -12.480644 0.9500832 18
-5.4179282 -12.592387 1.2789363 16
-5.4580131 -12.685552 1.6149594 22
-5.5904512 -12.993366 1.9879487 13
-2.052784 -4.7710948 -1.1040112 12
-5.5137696 -12.815143 2.2920599 18
-2.1812062 -5.0695744 -1.0398142 15
-5.553997 -12.908639 2.6476753 25
-2.2814949 -5.2596269 -0.94192028 37
-2.3084958 -5.3218737 -0.81527609 19
-2.6316085 -6.0667591 -0.7733314 37
-5.3950396 -12.437414 -1.2648166 12
-2.5311394 -5.8351436 -0.4447673 12
-5.5000391 -12.679474 -0.64452833 36
-5.5697794 -12.840249 -0.32495117 19
-5.6492782 -13.023521 0 13
-5.8729343 -13.539125 0.34263778 15
-5.4849339 -12.644651 0.64275819 10
-5.4322639 -12.523229 0.95454758 12
-5.4663606 -12.601834 1.2815373 15
-5.4995794 -12.678414 1.6161209 16
-5.633707 -12.987625 1.9896188 11
-2.0575886 -4.7434464 -1.0990213 14
-5.5384169 -12.767948 2.2865479 11
-2.1798131 -5.0252161 -1.0320379 12
-4.1406283 -9.5455666 1.9603904 5
-2.2947176 -5.2474098 -0.94094759 41
-2.3218949 -5.309557 -0.81444103 21
-2.6464131 -6.0516438 -0.77240217 37
-4.3029275 -9.8396521 -1.0019325 10
-2.5644288 -5.8641677 -0.44755754 29
-5.5848622 -12.771097 -0.65002519 33
-5.777689 -13.212041 -0.33479252 8
-5.7520008 -13.153298 0 13
-5.7848992 -13.228528 0.33521032 5
-5.5480409 -12.686896 0.6457395 12
-5.5204811 -12.623874 1.2854387 18
-5.4933968 -12.561939 1.6033443 24
-6.743494 -15.42058 2.3653862 18
-2.0653827 -4.7229815 -1.0956948 16
-5.6371613 -12.89069 2.3115144 15
-2.1766012 -4.9773088 -1.0235208 13
-5.6383729 -12.893462 2.6513782 22
-2.3047054 -5.2279372 -0.93867791 32
-2.3376393 -5.3026438 -0.81444103 22
-2.6859937 -6.0928421 -0.77867436 22
-5.5113249 -12.501754 -1.2746633 21
-2.5777938 -5.847404 -0.44685996 19
-5.6662512 -12.853185 -0.65505618 12
-5.764441 -13.075916 -0.33177513 28
-5.7990723 -13.154472 0 13
-5.7539558 -13.052132 0.33117163 14
-5.5639024 -12.621019 0.643224 8
-5.5813303 -12.660553 0.96752232 22
-5.5474725 -12.58375 1.2830235 22
-5.5290442 -12.541947 1.6028796 14
-6.7812324 -15.38238 2.3626029 18
-2.0746529 -4.7060919 -1.0931998 16
-5.7239485 -12.984064 2.3312933 11
-2.1802609 -4.9456506 -1.0183367 15
-5.6766062 -12.876675 2.6513782 21
-2.3153975 -5.2102547 -0.93673241 28
-2.3509493 -5.2902555 -0.81360602 22
-3.9173367 -8.8150396 -1.1280557 10
-2.6152899 -5.8850913 -0.60082507 10
-2.5951316 -5.8397303 -0.44685996 19
-4.3470302 -9.7819633 -0.49918807 6
-5.8032122 -13.058756 -0.33177513 23
-5.8429489 -13.148175 0 16
-5.7203903 -12.872386 0.32704014 4
-5.6297202 -12.668354 0.64648485 19
-5.6204896 -12.647583 0.96780133 19
-5.6502876 -12.714636 1.2980721 16
-5.5880132 -12.574502 1.609152 16
-10.290128 -23.1555 3.5611615 24
-2.0822511 -4.6856136 -1.0898732 18
-6.8227692 -15.353029 2.7602642 16
-2.1861453 -4.9194031 -1.0142633 17
-5.7203736 -12.872349 2.6539702 18
-2.3210666 -5.1839547 -0.93316573 28
-2.3640943 -5.2800546 -0.81304938 22
-4.1237726 -9.2101851 -1.1800911 10
-2.6268308 -5.8668599 -0.5997104 7
-2.6220276 -5.8561325 -0.44867364 21
-5.7769227 -12.90239 -0.65924871 12
-3.117152 -6.9619613 -0.17709838 3
-5.8690171 -13.108077 0 16
-5.755496 -12.854535 0.3269937 14
-5.6593595 -12.63982 0.64583266 15
-5.9582648 -13.307406 1.0195607 14
-5.7329693 -12.804223 1.3088475 8
-5.5987515 -12.504457 1.6021829 16
-7.5010014 -16.753012 2.5797129 13
-2.0881326 -4.6637115 -1.0861309 19
