# .PCD v0.7 - Point Cloud Data file format
VERSION 0.7
FIELDS x y z intensity
SIZE 4 4 4 4
TYPE F F F F
COUNT 1 1 1 1
WIDTH 1432
HEIGHT 1
VIEWPOINT 0 0 0 1 0 0 0
POINTS 1432
DATA ascii
16.124722 -2.5856485 -1.90975 16
13.665627 -2.1913249 -0.96780133 9
11.397289 -1.8275902 -0.26799187 2
13.602516 -2.181205 0.31984478 13
10.815923 -1.7343663 0.51083392 12
13.576978 -2.17711 0.96152323 9
9.8803253 -1.5843403 0.93356401 5
5.3958068 -0.86523414 0.89782345 3
8.15452 -1.3076023 1.5560182 5
16.019869 -2.6118715 -1.8981348 16
16.646954 -2.7141111 -1.5735894 12
16.832108 -2.7442987 -1.1925566 6
16.59856 -2.7062211 0.78427863 7
13.588788 -2.2155094 1.2845098 8
5.3643055 -0.87459379 0.89295989 2
8.224782 -1.3409644 1.5700899 8
16.925144 -2.8140807 -1.600714 12
17.303623 -2.8770089 -1.2265979 14
12.207087 -2.0296266 -0.28730324 6
11.381751 -1.8924012 0 7
21.027588 -3.4961786 0.49490058 9
13.564081 -2.255249 1.2828377 6
4.9838495 -0.82864606 0.83005714 4
8.1701193 -1.3584152 1.560462 6
11.385266 -1.9277176 -1.350368 26
11.250327 -1.90487 -1.0645417 7
12.244383 -2.0731804 -0.28832453 4
11.47074 -1.9421897 0 7
11.530734 -1.9523478 0.2715199 3
11.588294 -1.9620936 0.54810065 4
5.262723 -0.89106774 0.62419385 10
4.9969358 -0.84606546 0.83265102 11
9.0342054 -1.5296433 -1.7263582 2
8.1951208 -1.3875721 1.5660164 8
11.081128 -1.9100598 -0.78629494 7
16.671757 -2.8737195 -0.78893697 16
11.433392 -1.9707797 0 10
20.172993 -3.4772294 0.47526428 17
9.9817905 -1.7205665 0.47235599 3
13.796359 -2.3780856 0.97896236 3
4.9963479 -0.8612231 0.83297527 3
8.340106 -1.4375883 1.59453 17
11.058402 -1.9359673 -0.78503937 5
10.833287 -1.8965571 -0.51288354 10
11.561009 -2.0239575 0.27249476 10
9.9831562 -1.7477266 0.47263551 3
9.9578686 -1.7432996 0.7069121 6
17.292763 -3.0274014 1.6378707 6
5.3789802 -0.94168478 0.63859653 34
5.0135159 -0.87770391 0.8362177 5
16.520971 -2.9428329 -1.1734434 6
17.482037 -3.1140246 0.41227019 21
18.15716 -3.2342825 1.2896577 5
4.9718099 -0.88561416 0.47114792 3
5.4954596 -0.97889036 0.652767 3
4.9875746 -0.88842225 0.83232683 9
22.378775 -4.0588436 0.52804565 32
11.639256 -2.1110146 0.55164099 5
24.104919 -4.3719149 1.7130795 9
4.9415717 -0.896254 0.46854696 6
9.2588224 -1.6792748 1.1004118 5
4.8876657 -0.88647699 0.81611478 5
11.260924 -2.0423963 -2.1562815 7
9.734849 -1.7937051 -1.3911744 6
11.428488 -2.1057684 -0.2698023 4
9.9829216 -1.839414 0.47338083 5
15.29064 -2.8173933 1.0872244 12
4.9586339 -0.91365844 0.4704048 6
9.2267475 -1.7000844 1.0971595 3
4.8618803 -0.89583105 0.81222385 10
7.0047674 -1.290671 -1.3419825 1
14.049157 -2.6317661 -2.0088248 9
10.318519 -1.9329221 0 6
9.7241058 -1.8215735 0.4613623 2
9.6344814 -1.8047845 0.68542707 8
9.442049 -1.768737 0.89622152 5
13.823709 -2.5895338 1.644694 2
4.859201 -0.91025251 0.81222385 3
7.0665889 -1.3237526 -1.3545729 8
7.1019816 -1.3496375 -1.187695 5
16.759968 -3.18501 -1.5916106 12
11.386223 -2.163801 0 25
5.2034478 -0.98884636 0.1229708 4
9.6316833 -1.8303739 0.6855666 8
9.4276037 -1.7915912 0.89529258 5
9.2034473 -1.7489934 1.0955334 5
8.7752028 -1.6676111 1.467515 4
7.0399284 -1.3378452 -1.3501291 7
18.02075 -3.4246049 3.4560492 4
16.816921 -3.2475612 -1.5979273 12
15.546503 -3.0022273 0.3676126 5
20.719664 -4.0012302 1.4756285 7
5.1618032 -0.99680978 0.49046946 4
9.2508793 -1.7864623 1.1018056 5
7.0725446 -1.387578 -1.1841284 23
9.6649532 -1.8961883 -1.3842157 6
17.012392 -3.3376982 -1.6174345 8
15.508096 -3.042567 0.36691627 5
16.603094 -3.2573972 0.78903019 5
9.6852589 -1.9001721 0.69017053 6
5.1470985 -1.0098205 0.48935476 8
16.508638 -3.2388656 1.9673607 11
8.4930325 -1.6662666 1.2163731 10
8.7051182 -1.707876 1.4574636 4
17.816889 -3.4955342 3.4208705 9
7.0739574 -1.4109483 -1.185101 22
17.05455 -3.4016447 -1.6224507 21
11.44345 -2.2824728 0.27091643 3
16.543797 -3.2997713 0.78670096 10
20.706257 -4.130002 2.4691317 18
8.4896984 -1.6933274 1.2166513 7
9.0887289 -1.812808 1.5226359 8
8.9819355 -1.7915072 1.7256176 5
11.75688 -2.3791456 -1.9707371 7
14.209501 -2.875463 -2.0374944 23
16.380095 -3.3147085 -1.9543517 12
16.966913 -3.4334586 -1.6150194 17
5.1893864 -1.0501345 0.12292439 1
9.8611832 -1.9955286 0.46918833 5
6.4387507 -1.3029584 -1.8837057 5
9.0944281 -1.8403665 1.0850798 3
8.95403 -1.8119552 1.5009118 12
16.3591 -3.358041 -1.952958 17
16.972864 -3.4840283 -1.6165055 4
11.517085 -2.3641181 -0.54828697 7
11.959352 -2.4549022 0.28345025 11
11.994599 -2.4621377 0.57101971 6
12.017472 -2.4668326 0.8578651 2
11.996679 -2.4625647 1.1425709 2
11.994584 -2.497061 -2.0128884 9
16.33799 -3.4012816 -1.9515641 21
19.419506 -4.042799 -1.8505933 10
9.1442957 -1.9036812 1.0922812 3
9.0301094 -1.8799096 -1.7378377 6
8.0718746 -1.6804219 1.5534261 2
11.791665 -2.4934924 -1.9801402 15
19.389174 -4.1000791 -1.8489213 10
6.8507872 -1.4486831 0.81886244 3
11.994281 -2.5363383 1.7229631 4
8.9533243 -1.8932904 1.5035057 4
9.0030069 -1.9037964 -1.7337643 6
12.004641 -2.5735719 -2.0171037 22
11.922161 -2.5558898 -1.1375548 10
11.95452 -2.5628269 -0.85493535 10
5.1241589 -1.0985245 0.12167099 2
9.5394268 -2.0450757 0.68221831 2
9.3325043 -2.0007153 0.89046216 1
11.985345 -2.5694351 2.0138612 8
5.1291633 -1.0995972 0.98834193 9
12.022479 -2.6125331 -2.0213187 18
11.566655 -2.5134807 -1.1042994 10
9.2704487 -2.0145059 0.8850745 6
6.801825 -1.4780641 0.81398416 6
4.9301715 -1.0713462 0.95057094 16
11.956856 -2.6354489 -2.0115917 13
14.051594 -3.140903 0.6714536 9
14.015076 -3.1327403 1.0042142 14
11.428752 -2.5881593 -1.370346 10
5.2122111 -1.1803592 0.24922137 6
5.4372149 -1.2313136 -1.7395886 5
5.020309 -1.1369009 0.35994342 5
13.993361 -3.1689417 1.3385729 8
13.94738 -3.1585288 1.6723379 6
13.923148 -3.1530414 2.0063195 11
8.3555698 -1.8922055 1.4075304 6
12.162882 -2.79461 -1.1643076 11
12.187888 -2.8003557 -0.87446713 10
5.231842 -1.2020965 0.25033936 3
5.4444838 -1.2509542 -1.7431631 6
5.0206013 -1.1535606 0.36022243 8
9.0032892 -2.0686448 0.86185151 3
8.5065708 -1.9545159 1.2266718 4
13.8525 -3.1828258 2.3351841 9
14.986838 -3.4875464 0.71757114 6
15.225027 -3.5429745 1.093084 8
18.617544 -4.332438 1.7833396 3
9.4726219 -2.2043481 1.1373477 13
8.5608778 -1.9921787 1.2353005 4
7.2312508 -1.6827646 1.2197949 5
6.1199269 -1.4241515 1.1838626 4
14.021384 -3.3041806 -1.3439606 12
14.969265 -3.5275514 0.71719849 6
5.6715593 -1.3365197 -1.8182275 11
5.520926 -1.3010225 0.39663532 4
23.425829 -5.5203657 2.245384 18
10.044546 -2.3670268 1.2068058 5
7.5818949 -1.786696 1.2797794 8
14.491265 -3.4629991 -1.390035 9
5.3813663 -1.2859931 -1.7264822 8
5.5051684 -1.3155782 0.39579824 8
5.7349005 -1.3704777 -1.6907597 5
16.577217 -3.9614818 1.5901242 3
8.788949 -2.1003082 1.0567391 7
7.6184731 -1.8205978 1.2869127 8
5.5688891 -1.3472559 -1.7878443 5
5.4878988 -1.3276623 0.39482164 9
12.197629 -2.9509168 1.1708101 6
6.0302596 -1.4588733 -1.470046 11
6.8722644 -1.6625755 0.99369603 3
8.2674685 -2.0001109 1.3974791 8
16.375816 -4.0101657 0.78623515 7
16.403967 -4.0170593 1.575633 8
6.5832939 -1.6121395 0.79261243 4
6.0015888 -1.4696896 -1.4640515 9
20.512369 -5.023139 2.9680057 11
12.116741 -2.9671888 2.0495276 2
8.9380016 -2.1887681 1.7337643 4
5.9243889 -1.470528 -1.0028776 3
5.136384 -1.2749326 0.24679902 6
9.0740461 -2.2523232 0.87225533 7
6.5608444 -1.6285064 0.79052168 3
14.549517 -3.6114228 2.462935 7
11.710361 -2.9414394 -1.9837068 7
16.062191 -4.0345435 -1.936697 8
17.907541 -4.4980636 -1.7225882 9
5.4821792 -1.3770281 -0.13123384 4
14.588109 -3.6642795 1.0517881 3
20.482042 -5.144733 1.9702381 4
14.537119 -3.6514716 2.1065242 12
14.547032 -3.6539619 2.464232 14
6.0579214 -1.5216447 1.1768268 4
17.88912 -4.5465817 -1.7220308 14
5.1987772 -1.321287 -1.8125023 12
18.973528 -4.8221869 0.91294211 10
19.044561 -4.8402405 1.3740631 24
14.459521 -3.674937 1.3918929 14
4.8774796 -1.2396282 0.70727777 7
8.8157864 -2.2405624 1.4944271 4
4.8497763 -1.2325873 0.9427945 1
11.549453 -2.9739916 -1.1126597 7
5.2111144 -1.3418654 -1.8182645 19
4.9199834 -1.2668989 0.23692334 4
4.907536 -1.2636938 0.35436291 1
5.8180928 -1.4981626 -1.7227336 5
14.457547 -3.7228277 1.3928218 9
4.785996 -1.2466584 0.81254804 57
4.8442793 -1.2618402 0.94316483 50
4.8739681 -1.285028 0.23505998 31
4.8620195 -1.2818776 0.46910432 29
4.8423991 -1.2767048 0.58563185 34
4.8432708 -1.2769346 0.70393759 48
4.8443146 -1.2772099 0.94390541 30
4.8802395 -1.3003557 0.23552583 58
4.865931 -1.2965431 0.35213068 38
4.8663435 -1.296653 0.46984744 39
4.8456526 -1.2911398 0.70477265 43
4.8409543 -1.2898879 0.94390541 4
4.8708024 -1.3124195 0.23524633 65
4.8661442 -1.3111645 0.35240969 28
4.856935 -1.308683 0.46929008 19
4.79422 -1.2917846 0.69781399 4
11.817212 -3.1841037 2.3058844 2
4.8897839 -1.334025 0.23636433 31
4.8639264 -1.3269706 0.35254923 15
17.728283 -4.8366089 1.7144138 6
6.6097441 -1.8032625 0.80120754 1
11.718034 -3.1968999 2.28848 4
4.8558874 -1.3411821 0.35227019 33
6.5370302 -1.805509 0.79307705 2
11.679516 -3.2258487 2.2829256 5
6.551095 -1.8290987 0.79540002 4
8.8593283 -2.4735689 1.7330238 8
4.8640599 -1.3727232 0.4715195 7
6.5650797 -1.8527809 0.79772305 1
11.585654 -3.2696755 2.2681134 2
18.29583 -5.2186098 1.3303955 5
10.764077 -3.0702908 1.0442913 1
4.7966971 -1.3681856 0.58330888 6
8.7905636 -2.5073757 1.7222848 4
11.891729 -3.4301231 -0.5771687 2
7.2420158 -2.0889313 0.703192 3
17.846361 -5.2017398 -0.43158159 13
11.651944 -3.3962321 0.56598866 4
5.6589212 -1.6494251 0.54992026 3
11.525453 -3.3593633 1.9723583 6
4.7210264 -1.3760538 0.92650115 7
18.489164 -5.452178 -1.798388 15
19.045822 -5.6163282 -0.46101284 5
17.932264 -5.2879567 0.8718555 6
4.7860618 -1.411338 0.3489219 5
14.323986 -4.2239294 2.453532 4
18.037767 -5.3704371 -1.7558435 14
14.11184 -4.2015591 -0.34184861 12
5.6283331 -1.67574 0.54787666 7
4.7949185 -1.427605 0.82195109 3
14.117717 -4.2516379 -0.34231284 12
5.3242211 -1.6034223 0.38882259 12
17.5956 -5.2990241 1.7144138 16
14.113358 -4.2933483 -1.3762871 16
5.1495504 -1.5665168 -0.12496693 7
13.030419 -3.9639132 0 3
17.562414 -5.342567 0.42619666 22
5.3235407 -1.6194454 0.38910159 13
9.9963274 -3.0409284 0.97480804 5
4.8109078 -1.4635001 0.82616621 15
14.080376 -4.3263092 -1.3742434 13
5.1470671 -1.5814779 -0.12501335 15
10.80773 -3.3207624 0.79061985 4
5.8476291 -1.7967314 0.57072806 2
6.3917603 -1.9639201 -1.750474 7
5.8389683 -1.7940702 0.7143268 4
9.6741791 -2.9724698 1.4223492 7
14.073911 -4.3727589 -1.7234441 14
5.1420732 -1.5976402 -0.12501335 9
9.7724199 -3.0362873 0.23758571 6
5.8647757 -1.8221837 0.57295752 4
6.0659118 -1.8846766 -1.6628491 13
9.631115 -2.992384 1.1793942 5
9.6099319 -2.9858022 1.6533052 4
7.1833558 -2.2552586 -1.2369797 5
14.0912 -4.4240184 -1.727161 18
9.7881689 -3.0730555 -0.23818919 31
9.7347546 -3.0562859 0.23688939 12
9.728713 -3.054389 0.47552365 8
5.383152 -1.6900736 0.3945426 16
9.6534777 -3.0307684 0.94396794 3
6.2596574 -1.9652578 -1.7175514 9
9.5842896 -3.0090466 1.1747482 5
6.0334835 -1.8942492 0.88875949 5
8.5222979 -2.6756277 -1.8986497 7
10.745848 -3.3737249 1.8504437 8
8.9496775 -2.835567 -1.5424148 1
9.913455 -3.1409249 -1.2160978 31
9.8809061 -3.1306121 -0.96700513 9
9.7934322 -3.1028976 -0.23851414 35
9.7381563 -3.0853841 0.23716792 9
9.728302 -3.082262 0.47589633 8
5.9952207 -1.899493 -1.9623989 4
7.069541 -2.2398748 0.51856965 3
9.6701889 -3.0638499 0.94638312 5
6.4905787 -2.0564394 -1.7823836 47
6.03228 -1.9112346 0.8893162 5
8.576808 -2.7174289 -1.912372 8
4.8915625 -1.5498159 0.84302676 7
6.3815746 -2.021903 1.2612561 2
4.9301729 -1.5781609 -0.85048431 1
9.9135513 -3.1733532 -1.2172594 26
9.8867445 -3.1647723 -0.96849144 7
10.814398 -3.4617162 -0.26362824 8
6.9715638 -2.2316153 0.16994946 12
15.0886 -4.8298993 0.73881322 12
14.956095 -4.7874837 1.0981064 16
15.198997 -4.8652377 1.4888719 8
6.7166286 -2.1500099 -1.8462031 12
7.109293 -2.2757027 1.0490869 5
4.9552341 -1.6033627 -0.85567218 4
14.829341 -4.7983227 -1.4541304 7
10.808531 -3.4973109 -0.79438674 9
18.294939 -5.9196849 -0.44643646 20
6.9283743 -2.2418106 0.16906744 2
11.283155 -3.6508851 0.55303848 9
15.026401 -4.8620853 1.1043845 8
15.164693 -4.9068322 1.4870143 8
6.5515294 -2.1198752 -1.8026438 15
7.1190677 -2.3035133 1.051592 5
9.8513842 -3.2161226 -1.7025899 6
10.795937 -3.5244853 -1.0595255 10
10.80313 -3.5268338 -0.79466575 5
18.254669 -5.9594932 -0.44583297 4
6.8825655 -2.2469103 0.16809259 4
14.558433 -4.7528048 1.0709014 7
5.792665 -1.8910968 0.56849867 1
6.4962964 -2.1208074 -1.7889682 32
18.206148 -5.9436531 2.691608 14
5.8721824 -1.9170566 1.0148745 11
4.9459171 -1.6318759 -0.85567218 10
10.792376 -3.5608802 -1.0602686 10
13.112959 -4.3265429 -0.96556914 9
13.10726 -4.3246627 -0.32044825 11
4.7659311 -1.5724908 0.11651821 1
13.164859 -4.343667 0.64648485 7
6.3426118 -2.0927072 -1.748448 11
9.5093508 -3.1375539 1.4073185 17
6.0857487 -2.0256388 -1.0537834 5
10.754657 -3.5796831 -1.3255118 7
13.078871 -4.3532968 -0.96389496 9
11.413137 -3.7988582 -0.27927232 9
13.125989 -4.3689799 0 13
13.133836 -4.371592 0.32137668 13
13.149651 -4.3768559 0.64629853 7
5.6928735 -1.8948705 0.55976689 15
6.3517976 -2.1141932 -1.7525001 9
13.124152 -4.3683686 1.94397 18
5.5352221 -1.8423964 0.95845658 11
9.9931755 -3.3591924 -1.7320958 6
10.760934 -3.6172733 -1.3276025 10
13.075147 -4.3951926 -1.2869251 9
10.52042 -3.5364249 -0.77611053 1
13.044997 -4.3850579 -0.31951982 8
13.097802 -4.4028082 0 9
13.115121 -4.4086299 0.32123744 13
5.4023705 -1.8159995 -1.9258238 20
13.125245 -4.4120331 0.6457395 3
5.6966639 -1.9149258 0.56069577 14
13.13366 -4.4148622 1.9473102 11
5.4829645 -1.843091 0.95035058 2
10.005261 -3.3963284 -1.2356112 10
10.044973 -3.4098086 -0.98967075 2
17.944069 -6.0911899 -1.325094 12
14.069484 -4.7759461 -0.34495884 18
14.069489 -4.7759476 0 14
4.9385195 -1.6764014 -1.8982117 21
19.96727 -6.7779746 0.48956212 9
20.013399 -6.793633 0.98561221 13
14.573651 -4.9470878 1.0762029 4
5.7569556 -1.954223 0.56719822 13
6.06249 -2.0579379 -1.6760181 29
18.2423 -6.1924267 2.7074738 4
4.8962727 -1.6620605 0.84951156 3
10.011608 -3.4335973 -0.9874413 9
10.015492 -3.4349294 -0.74039519 9
17.863535 -6.1265068 -0.43845195 19
14.035497 -4.8136368 0 10
14.097912 -4.8350425 0.34602657 10
5.9994302 -2.0575743 0.59172171 2
6.0523343 -2.0757184 -1.6750051 42
6.6649075 -2.2858076 0.82397312 4
8.9343405 -3.064136 1.3274331 1
4.911562 -1.6844772 0.85307819 4
10.019663 -3.465703 -0.74137181 6
10.023339 -3.4669747 0 19
10.026307 -3.4680014 0.24631298 9
10.01057 -3.4625576 0.49397069 17
9.9480076 -3.4409182 0.98205364 5
6.0267658 -2.084599 -1.6694336 20
6.6720414 -2.3077936 0.82559919 5
6.0767264 -2.1018801 -1.5235357 13
5.6975513 -1.970727 0.84728593 1
6.2804494 -2.1723459 -1.4125521 11
4.9052696 -1.6966846 0.852754 0
4.9928856 -1.7435937 0.12278512 4
14.078061 -4.9162788 0.69539744 4
6.6857939 -2.3347838 0.8281545 12
5.6785898 -1.9830524 0.84533751 1
6.5750241 -2.2961011 -1.4803314 17
5.4461317 -1.9018743 0.94775659 7
9.1570473 -3.1977839 -1.8274513 4
4.7611127 -1.679455 -0.11721452 5
4.8302951 -1.7038587 0 1
4.9798408 -1.7566102 0.12259942 4
17.845718 -6.2949743 0.88247651 3
4.7790174 -1.6857709 0.35436291 8
6.6521997 -2.3465252 0.8249023 7
7.2767224 -2.5668218 1.0844369 5
5.4512968 -1.9229136 0.94970208 5
5.2175641 -1.8404657 -1.0424063 5
7.162045 -2.5488811 -1.2489766 5
4.7884274 -1.7041408 -0.11800369 4
4.801023 -1.7086234 0 4
6.8416872 -2.43487 0.16860323 4
6.1152239 -2.1763308 0.30269912 2
5.8803754 -2.0927513 -1.6339782 13
9.8888941 -3.5193324 1.2274806 5
5.6294045 -2.0034339 0.83977056 3
5.5518861 -1.9758459 0.96818376 1
4.7723584 -1.7134519 -0.11772516 5
4.7887039 -1.7193204 0 9
6.7257137 -2.414778 0.16591077 6
13.899241 -4.9903378 0.68868941 8
8.6026392 -3.0886631 0.85274804 8
5.6796627 -2.0392075 -1.5797825 12
9.7350674 -3.4952466 1.2095934 5
5.6331081 -2.0224926 0.84116226 7
8.8136024 -3.1644068 1.5385239 8
4.7522154 -1.7221545 -0.11735379 7
4.7722993 -1.7294327 0 4
19.653645 -7.1222806 0.48533776 9
4.7225938 -1.7114199 -1.5674169 4
8.5765867 -3.1080678 0.85107601 3
9.2820301 -3.3637135 1.154538 3
5.9045267 -2.1397405 0.88263589 2
8.8060312 -3.191216 1.538848 8
4.7417541 -1.733359 -0.11721452 9
4.7674513 -1.7427527 0 9
4.9952731 -1.8260335 0.12348144 4
5.0504532 -1.8462046 -1.8169839 15
9.9392347 -3.6333096 0.49350488 3
14.066575 -5.1420684 1.3972806 2
9.2483463 -3.380754 1.1515181 3
4.9175439 -1.7976195 0.86021155 3
6.5457397 -2.3928099 1.3130988 3
4.7272105 -1.74396 -0.11698242 10
10.267567 -3.787905 0 15
4.9767022 -1.8360023 0.12315649 5
4.7747512 -1.7614987 -1.7196684 6
9.9677715 -3.6773047 0.49546137 5
6.0008926 -2.2138462 -1.8340911 16
6.8341308 -2.5212438 0.6795975 3
5.9404159 -2.191535 0.88987291 3
8.8356447 -3.2596414 1.5472784 6
18.175716 -6.7053757 3.6500885 2
4.7142134 -1.7560107 -0.11679672 11
4.6543503 -1.7337121 -1.9394565 17
10.225629 -3.8089731 0 6
4.9727831 -1.852326 0.12320291 13
4.9631071 -1.8487216 0.24698535 4
12.194932 -4.5425243 1.2140977 9
4.9304814 -1.836569 0.99130434 6
11.207559 -4.210412 -1.6826029 7
6.5419927 -2.4576702 -0.32589769 3
4.7167788 -1.771981 -0.11698242 14
4.5989151 -1.7277024 -1.9183596 43
14.610976 -5.4889946 0 3
4.8702612 -1.8296407 0.12078899 28
5.0439548 -1.8948933 0.25127101 1
10.195019 -3.8300247 1.0160521 5
6.575439 -2.4702351 0.82141781 12
6.5280089 -2.4524169 0.98005706 18
5.2689958 -1.9794358 0.92473555 3
4.8756571 -1.8316679 0.98130614 1
4.7136817 -1.7858542 -0.11702884 15
4.7697744 -1.807106 0.11842149 16
6.5536537 -2.4829574 0.81955934 24
6.556325 -2.4839694 0.98534566 22
5.2394562 -1.9850525 0.92052037 2
8.3037825 -3.1460218 -1.6730344 8
6.5225658 -2.4920299 -0.32561818 4
4.7012057 -1.7961559 -0.11684316 14
6.5651522 -2.5083005 0 25
4.7665772 -1.8211321 0.1184679 15
5.0202298 -1.9180431 0.25061885 11
6.5528874 -2.5036147 0.49052754 15
5.6978126 -2.1769223 0.56905603 14
6.5541177 -2.5040846 0.82048857 23
6.5557313 -2.5047014 1.1530012 4
8.2857857 -3.1656907 -1.6711829 10
8.819397 -3.3978181 -1.5527904 6
4.6999025 -1.8107148 -0.11693599 13
6.5674529 -2.5302193 0 21
4.7745333 -1.8394676 0.11879285 15
6.6035838 -2.5441394 0.49485242 8
5.6935692 -2.1935413 0.56924182 19
6.5582213 -2.5266626 0.82188237 10
8.9630423 -3.4531596 1.5780811 6
8.2897501 -3.1937628 -1.673775 10
12.271583 -4.7721577 -1.2284031 8
4.6886001 -1.8232968 -0.11679672 13
6.5669279 -2.5537386 0 2
4.8264999 -1.8769232 0.12023193 1
5.7144895 -2.2222433 0.57202858 5
9.0607481 -3.5235324 1.136883 2
11.515735 -4.5176048 -2.0323429 5
4.6887541 -1.839391 -0.11693599 15
13.392337 -5.2537928 0 3
5.1466475 -2.0190217 0.12835571 1
8.5015574 -3.3351479 0.85200495 3
7.2583261 -2.8474302 0.91178304 3
8.7494593 -3.4323993 -1.7707947 12
8.3226614 -3.2918146 -1.4704332 4
11.934901 -4.7205434 -1.5008994 9
4.683599 -1.8524772 -0.11693599 15
21.393393 -8.461606 0 9
21.484314 -8.4975681 0.53640151 11
6.8830237 -2.7224028 0.69055873 11
6.306416 -2.4943407 0.79307705 3
8.377964 -3.313688 -1.6974745 6
4.7219238 -1.8838564 -0.83524501 4
6.4667754 -2.5799816 -0.32468653 7
4.6780825 -1.8663654 -0.11693599 15
11.039831 -4.4044456 0 2
6.9177675 -2.7599092 0.17292044 2
6.9415011 -2.7693779 0.69724697 2
18.505814 -7.38307 2.3299832 7
5.8865309 -2.3484876 0.89070791 3
8.3498411 -3.3312485 -1.6937715 8
9.4076538 -3.7837601 -1.6659505 4
4.6635766 -1.8756914 -0.11670389 15
10.747301 -4.3225665 0 10
6.9211636 -2.7836933 0.17319897 4
6.9596062 -2.7991548 0.69984788 4
5.9344063 -2.3868194 0.74801058 4
5.9130244 -2.3782196 0.89571816 1
8.4043264 -3.3802216 -1.7067322 8
4.6632195 -1.892589 -0.11684316 15
10.650275 -4.322463 0 14
10.639995 -4.3182912 0.26659921 20
9.8901424 -4.0139599 0.99580163 1
7.1417046 -2.8984935 0.90132946 4
6.4845252 -2.6317744 -1.6581824 13
7.3571305 -2.9859252 1.11589 1
4.6505132 -1.9025751 -0.11665746 14
10.68259 -4.3703628 0 11
10.64455 -4.3548002 0.26701701 13
8.8375559 -3.6155396 0.89083374 1
9.0254536 -3.6924105 1.1403676 2
6.50597 -2.6616626 -1.6655602 13
5.620182 -2.2992771 0.85340953 5
9.0553589 -3.7046452 -1.8433744 6
4.6448479 -1.9163651 -0.11665746 14
15.539383 -6.4112182 0 18
8.9997663 -3.7131116 1.1385092 1
6.4512696 -2.6616564 -1.6535712 13
5.609673 -2.3144314 0.85285282 5
8.9516668 -3.6932669 -1.8244888 6
4.6416616 -1.9292862 -0.11670389 13
13.186315 -5.4808335 0 10
13.241844 -5.5039144 0.33293566 10
13.559411 -5.63591 0.68477643 6
10.303006 -4.2823992 1.0409471 3
12.909963 -5.3659692 1.6349373 6
4.9059901 -2.0391533 -1.2588537 7
5.5834775 -2.3207479 0.84979105 7
8.6533995 -3.5967476 -1.7656105 8
4.6337333 -1.9430856 -0.11665746 13
6.2525229 -2.6219003 0 1
13.064068 -5.4782181 0.328897 14
13.163947 -5.5201011 0.66567725 5
9.935071 -4.166121 1.0050908 3
12.889378 -5.404964 1.6344727 8
5.5816388 -2.3405752 0.85062611 11
4.6319728 -1.9575747 -0.11675031 13
6.2212276 -2.6292291 0 3
10.570311 -4.4672484 0.53515047 1
5.9081826 -2.4969292 0.59840989 2
5.818656 -2.4590933 0.73871845 6
6.469501 -2.7341549 -1.6641769 10
5.6279855 -2.3785117 0.85869807 23
4.6243048 -1.9705256 -0.11670389 12
6.2501974 -2.663357 0 5
6.9197669 -2.9486763 0.35077322 4
4.6348629 -1.9750246 0.47003326 1
5.5865564 -2.3805637 0.71014541 5
5.615438 -2.3928709 0.85786307 17
5.1271882 -2.1848161 0.91565675 1
4.6147637 -1.9826589 -0.11661104 12
6.2165418 -2.6708372 0 3
4.6399598 -1.993484 0.47114792 4
5.5721679 -2.3939922 0.70921624 6
5.6392484 -2.4228122 0.86259496 13
9.0210342 -3.875742 1.6130993 8
5.7117786 -2.4539738 1.1712722 3
12.580166 -5.4465313 -1.6031121 13
4.6128788 -1.9971269 -0.11670389 11
15.653876 -6.7772813 0 14
19.791317 -8.5685692 1.0057362 9
4.6325474 -2.0056424 0.47096214 4
6.185976 -2.6781931 -1.7646561 9
5.69489 -2.4655793 0.72570962 4
5.6888027 -2.4629438 0.87122369 5
6.3157368 -2.7343724 -1.4628668 2
9.031908 -3.9103277 1.6169902 8
8.8865185 -3.8473818 1.8244888 5
14.411135 -6.287086 -1.8386657 11
4.6036181 -2.0084014 -0.11661104 10
20.496389 -8.9418755 0 9
10.335035 -4.5088234 0.52583373 1
5.6624923 -2.4703522 0.72245741 4
5.7399926 -2.5041628 0.88013077 3
9.046278 -3.9465826 1.6215296 6
8.62714 -3.7637267 1.7733868 4
15.221594 -6.69449 -1.9445951 12
4.5994692 -2.0228567 -0.11665746 13
20.577784 -9.0501547 0 9
20.590544 -9.0557661 0.52224296 10
10.305154 -4.5322289 0.52499527 2
4.6628447 -2.0507293 0.47523516 2
15.299785 -6.7288785 1.9545841 11
8.087059 -3.5567064 -1.8778586 19
8.9947844 -3.9559257 1.6143962 8
8.4000425 -3.6943569 1.7289504 4
9.5314007 -4.2277169 -1.2193501 7
4.5967469 -2.038918 -0.11675031 4
6.4792295 -2.8739057 0 1
4.9889832 -2.2128971 -1.9864529 13
17.782009 -7.8873296 0.45163566 8
4.6254334 -2.0516419 0.47207686 6
7.950666 -3.5265713 -1.8487508 26
9.0490618 -4.013772 1.6263932 14
8.6111746 -3.8195443 -1.7748681 2
14.195054 -6.2963114 2.9257736 3
6.3921614 -2.8553362 -0.48955092 4
12.450618 -5.5616088 -0.31659526 5
6.4899445 -2.8990152 0 5
17.936506 -8.0121193 0.91610974 10
5.9604306 -2.6624849 0.45648634 8
5.5953755 -2.4994173 0.71664983 6
6.3016825 -2.8149199 -1.467025 4
9.0709572 -4.0519366 1.6322296 12
8.5401325 -3.8148208 -1.7622778 6
10.788669 -4.8192267 2.2262688 2
11.081122 -4.9893556 -1.7079324 5
11.110772 -5.0027056 -1.1368116 7
11.13002 -5.0113721 -0.85354024 8
11.194302 -5.0403152 -0.28502858 2
14.52916 -6.5418587 0 7
14.529781 -6.5421391 0.74309891 6
5.9543242 -2.6809776 0.45662588 6
4.6447711 -2.0913417 0.47523516 13
5.4086137 -2.4352674 0.69365197 3
5.5667157 -2.506454 -1.4465289 4
7.8719797 -3.5444157 -1.8350288 21
16.177885 -7.2842093 2.9149272 9
4.7850032 -2.1544824 -0.98871225 4
9.2008266 -4.1427388 1.9011419 1
4.8788218 -2.2151856 -0.88031447 3
11.909364 -5.4073405 -1.8381984 6
19.006014 -8.6295109 -1.9473866 6
11.096054 -5.0380645 -0.85214508 8
6.446619 -2.9270298 0 5
11.167488 -5.0704985 0.28475004 11
4.6871343 -2.1281517 0.48025134 2
5.6075311 -2.5460494 -1.6121987 9
5.2490015 -2.3832624 0.67413872 4
5.6102018 -2.5472622 -1.4599013 2
7.728991 -3.5092793 -1.8042579 32
16.153124 -7.3341813 2.9146028 12
9.2235584 -4.1878743 1.9085479 4
11.162157 -5.1080785 -2.0167794 5
10.331871 -4.7281194 -1.5968723 6
15.075451 -6.8988981 -1.9387876 8
18.830032 -8.6170874 -1.9319665 18
12.086117 -5.5309052 -0.92943525 6
16.35224 -7.4831882 -0.41751581 13
6.434269 -2.9444802 0 5
11.154213 -5.1044431 0.28479648 15
5.7672524 -2.6392369 0.59172171 4
11.189109 -5.1204123 1.7293651 9
7.6794105 -3.5142877 -1.7951097 17
11.190869 -5.1212182 2.0219672 14
9.2521963 -4.2340336 1.9170648 11
7.9827204 -3.6800847 -1.4441696 5
10.266468 -4.7329068 -1.5888002 6
12.081496 -5.5696464 -0.93027234 6
6.5641065 -3.0260947 -0.16781406 2
6.3769817 -2.9398289 0 5
5.8801942 -2.7108066 0.30195379 7
13.277516 -6.1210189 1.3640254 9
8.6212826 -3.9744658 1.1101685 3
4.789525 -2.2080014 -1.2496313 6
13.336696 -6.1483011 2.0639372 11
7.6908851 -3.5455468 -1.8000995 6
13.232246 -6.1001496 2.3938718 11
9.0190125 -4.1578217 1.8711473 2
10.727138 -4.9816475 -1.9431767 11
12.055832 -5.5986886 -0.30861074 7
6.3687472 -2.9576254 0 3
5.8979683 -2.7389972 0.30325812 6
4.5221758 -2.1000836 0.58307654 3
5.4804745 -2.5451143 0.84923434 3
13.472912 -6.2567763 2.4405625 2
9.2319708 -4.2872968 1.9178056 8
4.7604218 -2.2269056 -0.86345392 4
12.458993 -5.8282652 -1.9331145 8
22.15589 -10.364433 -1.7104287 6
12.054639 -5.6391101 -0.3089821 10
6.060596 -2.8351219 0.62423384 19
4.7773833 -2.2348402 -1.3807268 5
5.5401068 -2.591639 0.71525604 4
5.4625821 -2.5553734 0.84756422 6
19.826452 -9.2747326 3.5961576 4
4.7319293 -2.213577 -0.98426867 6
9.1434116 -4.2772503 1.9018824 9
4.7520084 -2.2401788 -0.86312973 4
12.156804 -5.730927 -1.8888575 25
18.744925 -8.8366814 -1.4491209 9
15.37286 -7.2470317 -0.39458352 15
15.30645 -7.2157249 0 18
4.7829819 -2.2547801 -1.3842723 3
5.4496012 -2.5690362 0.84672916 11
4.744102 -2.2364516 -1.1148226 3
14.170339 -6.6801424 2.5738254 2
4.7893405 -2.2577777 -0.9975996 5
8.8960133 -4.1937342 1.8530023 5
4.6629534 -2.2161281 -0.84821463 4
12.149472 -5.7741923 -1.8905275 8
6.368165 -3.0265517 -0.49303874 3
12.467826 -5.9254937 -0.32049468 2
4.5737314 -2.1737244 0 4
6.1915717 -2.9426236 0.47936648 6
5.4075522 -2.5700085 0.70015645 11
4.8336868 -2.2972715 -1.2680761 7
5.4450817 -2.5878446 0.84728593 11
4.7564883 -2.2605817 -1.1193967 4
10.94974 -5.2040043 1.9918127 6
10.617105 -5.0459146 2.2147896 2
12.012828 -5.7478509 -1.8716 10
6.5868616 -3.1516557 -0.16953166 3
4.5373554 -2.171016 0 4
5.9465723 -2.8452926 0.15305199 7
5.6061363 -2.6824021 0.43458286 6
4.75699 -2.2761059 -1.5121466 4
5.4258928 -2.5961597 0.70340866 5
4.8329225 -2.3124378 -1.2694594 7
5.4025569 -2.5849941 0.84171897 11
4.7399654 -2.2679601 -1.1169018 4
5.960279 -2.851851 1.085559 4
5.7956882 -2.7730982 1.2105244 3
10.980094 -5.2914453 -2.0025127 13
13.229811 -6.3756118 -1.7174042 21
12.23745 -5.8973804 -0.31538829 10
4.5258698 -2.1810732 0 4
5.6094074 -2.7032437 0.43541989 6
4.7454195 -2.2868772 -1.5104928 4
5.3380933 -2.572494 0.69295508 4
6.6655102 -3.2121928 -1.7531729 3
5.4149427 -2.6095288 0.8447808 11
4.7371387 -2.2828865 -1.1177334 4
12.0077 -5.7866611 2.189924 6
5.8180213 -2.8037772 1.2168196 4
9.9284964 -4.8231602 -1.8134803 1
13.172194 -6.3989148 -1.712526 31
6.5770359 -3.1950557 -0.16976376 3
4.6287322 -2.24859 0 5
5.3344531 -2.5914221 -2.0039322 15
5.3389196 -2.5935917 0.69411659 4
6.60112 -3.2067556 -1.7388781 11
5.4940095 -2.6689327 0.85841972 11
7.5682611 -3.6765828 -1.7884564 6
11.849224 -5.7562299 2.164309 4
4.76438 -2.3144863 -0.99796987 4
5.780899 -2.8083007 1.2108948 2
5.4192953 -2.6513679 -0.99120492 7
13.507576 -6.6085258 -1.7585217 14
5.3884668 -2.6362853 -2.0269806 16
5.337009 -2.6111097 0.69481355 4
6.6008801 -3.2294533 -1.7411838 15
5.4776397 -2.6799128 0.85702807 11
7.5772948 -3.7071602 -1.7930306 11
5.9653025 -2.9184997 1.0910711 2
8.5483265 -4.1822333 -1.793013 6
7.5526114 -3.6950841 1.5841615 1
9.1459093 -4.5062952 -1.4329264 3
13.478377 -6.6409521 -1.7571278 14
13.369277 -6.5871973 0.34602657 5
5.4992008 -2.7095196 -1.9129517 9
5.6272249 -2.7725987 -1.7988095 6
6.2181001 -3.0637298 0.64671373 9
5.5666909 -2.7427731 0.72570962 4
6.4940758 -3.1997061 -1.7153611 7
5.4879007 -2.7039521 0.85981148 3
6.7649465 -3.3331673 -1.6029993 1
6.0013871 -2.9569526 1.0991771 2
7.5105281 -3.7005239 1.5774959 5
11.185193 -5.554812 -2.0517974 39
13.345362 -6.6275988 -1.7424929 18
19.13007 -9.500412 -1.992718 13
6.2684627 -3.1130559 -0.48941141 2
4.564713 -2.2669363 0.11832864 4
5.5840783 -2.7731755 0.43597797 7
5.5752935 -2.7688129 0.58076042 4
6.7571902 -3.3557687 0.88228071 14
6.9546037 -3.4538088 -1.8398632 12
8.727272 -4.3341546 1.3694633 5
7.5744367 -3.761631 -1.7976047 6
6.4374957 -3.1970015 1.1808859 1
8.2874784 -4.1157436 -1.7433922 14
7.4425364 -3.6961265 1.5656462 4
11.164343 -5.5833764 -2.0508246 9
11.983311 -5.9929495 -1.8830122 4
13.207766 -6.6053085 -1.7269287 43
13.156564 -6.5797024 -1.3723856 9
13.086744 -6.544785 0.33971322 5
5.5941567 -2.7976823 0.4373731 7
12.225079 -6.1138592 1.2752206 7
6.7655597 -3.3835101 0.88460374 4
5.3973608 -2.6992631 0.84812093 3
6.1973133 -3.0993257 1.1384103 1
8.6486168 -4.3252425 -1.8218967 13
7.676527 -3.8390923 1.6171185 4
11.170639 -5.6280208 -2.0550399 8
12.260293 -6.1770129 -1.605435 3
25.144255 -12.668244 -1.9688067 7
4.5783653 -2.306684 0.11902496 5
5.6838279 -2.863641 0.44504628 7
5.3707447 -2.7059028 0.56106734 3
5.1003246 -2.5696588 0.66786659 4
8.7481508 -4.4075165 1.3767004 10
6.1598902 -3.103492 1.1332225 4
7.6703682 -3.8645051 1.6182295 4
11.371104 -5.7738824 -2.0952458 8
12.063029 -6.1252198 -1.901383 4
12.253224 -6.2217946 -1.6070611 3
13.552916 -6.8817363 -1.4180884 13
8.9925184 -4.5661125 -0.70523798 6
5.3941774 -2.7389903 0.56441146 4
5.113481 -2.5964618 0.67065418 9
11.791078 -5.9871311 1.8585178 7
6.1782651 -3.137125 1.1384103 6
11.127496 -5.6868768 -2.0530944 16
13.507218 -6.9030709 -1.0607169 11
13.354721 -6.8251348 -0.69940364 9
5.4082665 -2.7639775 0.56664085 3
5.1066661 -2.6098399 0.67065418 10
5.4635425 -2.792227 0.86231655 2
6.2368097 -3.1874173 1.1507316 12
12.241245 -6.3019524 -1.6100811 3
8.9686489 -4.6171775 -0.70537746 4
13.559998 -6.9808631 -0.71123582 13
4.5029526 -2.3181787 -0.1175859 4
5.4443045 -2.802799 0.57128543 3
5.1024323 -2.6267986 0.6711188 6
5.4217768 -2.7912014 0.85702807 5
6.1553836 -3.1688716 1.1374376 10
12.675701 -6.573266 -1.6697825 6
13.512623 -7.0072703 -0.70983833 13
5.1175413 -2.6538146 0.67413872 7
5.9479804 -3.0844574 1.1007984 4
14.662527 -7.6523547 -1.9341415 12
10.440805 -5.4490433 -0.54921865 9
6.0411558 -3.1528716 0.63575244 7
5.3676896 -2.8013904 0.70805466 4
5.3306041 -2.7820356 0.84505916 7
14.733355 -7.7483101 -1.9466858 17
10.377507 -5.4575586 -1.0938956 10
10.402481 -5.4706922 -0.8218708 7
10.414794 -5.4771676 -0.54875284 9
6.0153584 -3.1634927 0.63408041 6
5.3131499 -2.7941995 0.70201486 3
5.3306022 -2.8033776 0.84645087 5
5.8654881 -3.0846758 1.0888015 11
7.5843592 -3.9886343 1.6145264 2
10.325296 -5.4692712 -1.3663969 13
10.354229 -5.4845963 -1.0931524 22
10.403834 -5.5108719 -0.82326591 15
4.6201806 -2.4472926 -0.24381767 10
6.0481791 -3.2036979 0.63853925 10
5.329412 -2.8229694 0.70526713 4
5.2977586 -2.8062029 0.84255403 2
5.8528218 -3.1002178 1.088153 8
6.5078273 -3.4471717 1.3875299 5
10.302972 -5.4943438 -1.3654677 23
10.356443 -5.5228591 -1.0950102 10
4.6133289 -2.4601848 -0.24381767 11
10.264531 -5.4738445 0.27008083 21
10.106935 -5.3898015 1.0686289 5
5.3285193 -2.8415797 0.70619631 4
5.2899022 -2.820986 0.84255403 5
5.9277287 -3.1611249 1.1037165 6
6.4478827 -3.4385114 1.3767911 16
10.302375 -5.5333486 -1.3675584 15
18.862539 -10.130965 -1.9975485 13
4.5954485 -2.46819 -0.24325867 3
10.338079 -5.5525255 0.27244833 24
10.159316 -5.4565125 1.0758744 8
5.3043141 -2.848918 0.70410556 3
6.116528 -3.2851534 1.1406801 9
6.4359207 -3.4566972 1.3764207 16
12.251539 -6.6271462 -1.6288975 16
18.79912 -10.168886 -1.9940186 19
19.563147 -10.582167 -1.0372267 7
10.33387 -5.5898337 0.2727733 14
10.320161 -5.5824184 0.54716897 4
5.2958379 -2.8646436 0.70410556 4
5.6214709 -3.040786 0.89822328 5
6.4947844 -3.5131819 1.391233 11
15.871258 -8.6461048 -1.6861745 9
15.735156 -8.5719614 -0.83561361 4
6.0962315 -3.3210132 -0.16117577 3
16.415226 -8.94244 0.43399546 7
6.3737116 -3.4721746 0.3384752 3
5.929863 -3.2303815 0.6299932 4
5.2925487 -2.8831949 0.70480245 4
5.2663217 -2.8689075 0.84283239 5
6.3531613 -3.4609797 1.3630898 10
15.933397 -8.734127 -0.84735262 13
13.661844 -7.4889417 -0.36171705 6
17.794411 -9.7542686 0.47113273 8
17.837696 -9.777997 0.94862497 15
5.9248776 -3.2478092 0.63036472 7
5.3006592 -2.9056346 0.70689321 4
5.2761598 -2.8922048 0.8456158 10
6.2006984 -3.3990042 1.1617557 13
6.3147798 -3.4615397 1.3567947 10
14.75118 -8.1464481 -1.970613 17
16.348341 -9.028492 -0.87092382 19
13.664504 -7.5463228 -0.36241338 3
13.081658 -7.224442 0.346955 5
4.4368405 -2.450278 -1.7126259 8
6.3693476 -3.5175192 0.33931372 4
10.500979 -5.7992435 1.1191621 1
5.3175883 -2.9366775 0.71037769 1
5.8530459 -3.2323878 0.93969685 8
6.2055378 -3.4270539 1.1646739 9
6.2849479 -3.4709089 1.3527213 8
12.052681 -6.6974192 -1.9378464 8
14.486706 -8.0499554 -1.9380907 4
17.608196 -9.784502 -0.93940145 22
23.311518 -12.953716 -0.6191712 8
6.3845654 -3.5477676 0.34061804 4
5.8510013 -3.2512774 0.46806595 4
16.771299 -9.3194561 1.7900277 7
5.7857027 -3.2149923 0.93023312 10
6.2172456 -3.4547915 1.1685648 6
6.2500701 -3.4730315 1.3471668 10
11.931347 -6.6791396 -1.9217023 6
16.36314 -9.1600466 -1.749527 19
13.698601 -7.6684442 -0.7321052 3
22.407085 -12.543433 -0.59619254 7
4.3617311 -2.4416866 0.11605398 1
6.3611856 -3.5609765 0.33996588 4
16.743677 -9.3730707 1.7902136 10
5.7096572 -3.1962526 0.76520085 16
6.2110744 -3.4769447 1.0003763 11
6.0927048 -3.4106815 1.1471648 4
6.2374134 -3.4916894 1.3467964 8
16.747019 -9.4403105 -1.7935576 10
4.4553347 -2.5114765 -0.23850717 3
16.668901 -9.3962755 -0.44425467 14
6.3471107 -3.5778725 0.33977953 4
5.7006807 -3.2134793 0.45760247 4
5.7575464 -3.2455347 0.61661673 3
5.7278361 -3.2287867 0.76891768 19
6.3456564 -3.5770528 1.0237575 12
6.2183752 -3.5053041 1.1727799 3
6.2133293 -3.5024598 1.343834 2
16.599438 -9.4221296 -1.7807385 15
16.646475 -9.4488287 -0.89263171 15
16.65312 -9.4526005 -0.4445796 19
5.6893854 -3.2293942 0.45746294 4
5.7617455 -3.2704673 0.61810297 1
5.8806214 -3.3379433 0.79075396 2
6.3384595 -3.59782 1.024314 8
15.886304 -9.0173426 3.0011752 3
6.2080374 -3.5237901 1.344945 3
10.441359 -5.962894 -1.4061204 16
17.725052 -10.122495 -0.95188588 17
13.831176 -7.8987646 -0.36979443 9
22.546221 -12.875789 1.2107965 7
11.315044 -6.4618421 0.91115904 5
5.6995578 -3.2549267 0.61234373 3
6.1651111 -3.5207968 0.83024526 4
6.3634162 -3.6340458 1.029881 10
14.664719 -8.3747873 2.7745306 2
6.2124443 -3.5478282 1.3479073 5
10.411567 -5.9869165 -1.4044944 33
10.378497 -5.9679008 -1.1169326 10
12.164946 -6.9951539 -0.65440404 9
6.3024259 -3.6240556 0.3390342 1
5.7330322 -3.2966399 0.6169883 4
6.4848084 -3.7289302 1.0513136 13
6.2412071 -3.5888534 1.1828314 6
6.2121134 -3.5721235 1.3501291 6
10.406842 -6.0229325 -1.4061204 11
10.286556 -5.9533176 -0.55424964 9
6.6964769 -3.8755684 0.54103124 16
16.147644 -9.3454065 1.7406093 10
6.2892408 -3.6398818 1.0212523 5
6.2226205 -3.6013253 1.1812102 6
6.2395382 -3.6111164 1.3582759 7
11.395471 -6.6429768 -1.8537859 6
6.6842685 -3.8965867 0.54103124 9
11.944571 -6.9630742 1.2898976 4
6.1781478 -3.6015441 0.83628505 4
6.2623754 -3.6506448 1.0187472 10
6.2215056 -3.6268198 1.1831557 3
9.0654736 -5.284708 1.9770542 5
21.652889 -12.708755 2.3423634 6
6.2462406 -3.6661131 0.84697092 10
5.6502776 -3.316324 0.92076927 2
6.2651825 -3.6772306 1.1935314 1
7.2716703 -4.2679696 1.5886052 2
10.250128 -6.054667 0.27639419 14
10.248639 -6.0537882 0.55508816 5
10.250246 -6.0547371 0.83247381 7
13.462814 -7.9523749 1.458775 7
6.5147676 -3.8482203 0.88483608 16
8.2466297 -4.8712173 1.3460824 3
10.965173 -6.4770384 2.0923274 8
9.0721149 -5.3588247 1.9852009 4
14.355236 -8.5336847 -1.952958 4
10.246928 -6.0914397 0.27676556 10
10.231693 -6.0823836 0.55508816 5
10.229337 -6.0809827 1.1102445 3
6.3878837 -3.7973731 0.8690396 4
8.2278862 -4.8911901 1.3452473 4
10.877488 -6.4662857 2.0790336 8
6.5702519 -3.9057846 1.4401131 5
11.515699 -6.8920045 -1.5694283 6
10.223887 -6.1188707 0.55564713 4
10.220338 -6.1167469 0.8328923 14
10.206122 -6.1082387 1.1096871 5
6.3765883 -3.8163097 0.8690396 9
8.2303324 -4.9257526 1.3480308 6
10.182578 -6.0941477 1.9496615 4
6.5873041 -3.9424205 1.4464083 3
11.482795 -6.9159355 -1.5675699 9
11.050479 -6.6555572 0.60157841 1
6.5167289 -3.9249396 0.53196287 7
6.6186876 -3.9863479 0.72084147 3
8.4368258 -5.0813885 1.1517503 3
5.6292582 -3.3904276 0.92355275 5
7.9288688 -4.7754526 1.5206906 8
6.5964732 -3.9729686 1.4508519 3
11.596887 -7.0343947 -1.5861541 19
23.090813 -14.006337 0.62701648 14
18.456545 -11.1953 1.006668 4
6.499248 -3.9422889 0.53154433 16
6.6912622 -4.0587602 0.73013067 5
6.4914031 -3.9375303 0.88785601 4
10.156793 -6.1608682 1.6695206 9
10.134424 -6.1472998 1.9473919 8
10.116241 -6.136271 2.2292314 5
11.538199 -7.0429468 -1.5808111 13
18.305441 -11.173688 0.49791801 9
18.387695 -11.223897 1.0046183 13
6.6738348 -4.0737262 0.54675126 7
6.5898166 -4.0224409 0.7202841 2
6.4735994 -3.9515021 0.88692677 4
10.76841 -6.5730653 1.7730654 7
10.154277 -6.1981974 1.9545251 8
6.6382065 -4.0519786 1.4652938 3
10.552294 -6.4816632 -2.0346127 7
18.242224 -11.205142 -0.99837613 6
7.0244632 -4.3147211 0.19139622 7
8.2733488 -5.0818396 0.45279095 2
6.5757318 -4.0390911 0.53963608 20
6.6124945 -4.0616727 0.7239998 4
6.410068 -3.9373336 0.87972546 2
11.956648 -7.3442764 1.9720831 8
10.730548 -6.5911546 2.0689824 8
6.6637092 -4.0931311 1.4734404 5
7.0447016 -4.3542938 0.19227824 2
12.980083 -8.0229225 0.71160853 4
6.5135131 -4.025969 0.5354507 15
8.300108 -5.1302538 0.91034102 3
10.991763 -6.793952 1.5111207 5
6.7775435 -4.1891646 1.1197869 4
7.7021027 -4.7606301 1.487618 6
6.6840181 -4.1313572 1.4804763 5
6.7769241 -4.2182636 -0.55819136 3
16.912052 -10.526825 -0.46249834 10
6.677547 -4.1564069 0.36679795 4
6.5059147 -4.0495749 0.53586924 18
6.4716244 -4.0282311 0.71118069 3
6.1690383 -3.8398881 0.84975857 1
7.6485724 -4.7608166 1.4801604 4
6.6943665 -4.1668758 1.4856604 5
6.6939654 -4.1942339 0.36838177 3
6.5259929 -4.0889874 0.53851998 5
6.5001431 -4.0727911 0.71563953 3
6.1441512 -3.8497372 0.84790015 2
11.055005 -6.9267278 1.8334666 5
10.59787 -6.6403012 2.0547156 2
6.716949 -4.2086349 1.4934368 5
6.539145 -4.1242976 0.5406127 9
6.3768649 -4.021946 0.70337778 6
11.043903 -6.9654894 1.5269172 1
10.639884 -6.7106705 2.0667124 4
6.7659411 -4.2673397 1.5071381 5
6.7600694 -4.2900701 0.55986542 12
6.4093242 -4.0674801 0.7082082 4
7.0259023 -4.4587722 0.97311062 3
10.543361 -6.6910191 1.7549729 21
7.2568092 -4.6053104 1.4120698 6
6.7125115 -4.2598886 1.4978805 5
15.912513 -10.16083 -1.3202111 8
6.7665591 -4.3207417 0.56140012 8
9.6355124 -6.1526928 1.0665853 3
11.729778 -7.4899721 1.6275038 6
10.55802 -6.7417531 1.7605399 9
7.2655435 -4.6393647 1.4162849 6
9.4669628 -6.0450664 2.1162887 2
11.932652 -7.6723957 -1.3235245 6
13.104822 -8.4260721 -1.0894567 11
6.7932286 -4.3678756 0.56474841 6
6.5090232 -4.1851387 0.72195619 3
10.803914 -6.9466457 1.5020609 3
10.563441 -6.7920275 1.7649933 9
10.781779 -6.9324141 2.1059456 4
9.239625 -5.9408469 2.0696301 5
11.844643 -7.6597114 -0.9863565 17
9.4494209 -6.1107659 1.0498648 3
12.935824 -8.3653584 1.8014975 2
7.7898908 -5.0375781 1.3037736 6
9.2619991 -5.9895639 2.0781474 5
16.828045 -10.95333 -1.8732588 11
11.825209 -7.6969976 -0.98663557 12
11.796007 -7.6779904 -0.65636057 12
6.7393308 -4.3866129 0.94035614 5
10.913756 -7.1037354 1.8301264 10
6.8857069 -4.4818888 1.3498155 4
9.7564716 -6.3504624 2.1933119 1
12.862507 -8.4234018 -1.4344374 6
9.6156445 -6.2970963 1.0723447 3
10.863661 -7.114397 2.1335063 2
12.992606 -8.5086012 2.9261439 1
12.83062 -8.4538107 -1.4335085 6
6.4685211 -4.2619653 0.72269928 4
6.6981382 -4.4132547 0.9380331 4
7.9631763 -5.2467604 1.340237 6
10.585017 -6.9742332 2.0826004 2
6.6649303 -4.3913746 1.5038055 1
4.3617907 -2.8935792 -0.24409717 3
6.5347514 -4.3351054 0.73161697 3
6.513741 -4.3211675 0.91410607 9
11.090657 -7.3574591 1.8704866 7
10.525229 -6.9823585 2.0751426 4
7.0048661 -4.646976 1.5837913 2
6.7827392 -4.5303688 -0.76097077 2
8.1122637 -5.4183927 -0.45493379 5
6.6419845 -4.4363551 0.74517918 3
6.3960657 -4.2720995 0.89947104 10
7.8542933 -5.246088 1.3274331 6
6.6731629 -4.45718 1.5119522 1
4.13872 -2.7790082 -0.81903291 5
15.474277 -10.390445 -1.7389373 4
15.442331 -10.368994 -1.3006793 11
8.2466154 -5.5373187 -0.46322563 1
6.3757124 -4.2810717 0.89807725 4
6.9979482 -4.6988816 1.1846415 4
15.498081 -10.406428 3.0669961 3
6.6133003 -4.4406037 1.5008429 1
6.7726874 -4.5785613 -0.38123879 1
6.370461 -4.306643 0.89923877 3
6.9733076 -4.7141871 1.1829714 4
6.5137763 -4.4035292 1.2917764 4
6.6090875 -4.4679623 1.5030648 2
4.4075828 -2.9987648 -0.37277859 2
6.4003558 -4.354578 0.90527856 3
8.338047 -5.672915 1.4173388 5
6.5324273 -4.4444346 1.4886229 2
7.8667779 -5.3844786 1.1148145 1
6.4116039 -4.388473 1.0919522 5
6.5751357 -4.5004034 1.5012133 1
6.4156361 -4.4175925 1.0947356 5
9.6227913 -6.6259327 1.919507 2
6.6127238 -4.5533009 1.5126927 1
6.4163756 -4.4478807 1.0972408 1
9.6076403 -6.66009 2.2025695 1
6.3039751 -4.3944435 1.0799834 1
8.7960176 -6.1316233 1.7616016 2
6.5654287 -4.5767002 1.5078787 1
6.3128357 -4.4301534 1.0838802 5
9.6894379 -6.7997489 1.9447979 2
6.3425617 -4.4808192 1.0913956 1
9.6954298 -6.849515 1.95031 2
8.1610479 -5.7655225 1.8826265 1
6.5311346 -4.6689391 1.3190126 2
6.5693445 -4.7240305 1.3293884 2
7.4513392 -5.4895878 1.7437625 1
7.3380108 -5.5396342 1.7322832 1
7.3549991 -5.58882 1.7404299 2
6.8030915 -5.1975946 1.6130452 1
6.8639936 -5.2764502 1.6311901 1
8.0003166 -6.187808 1.9055855 1
9.7530413 -7.5870686 2.3281026 1
9.4753666 -7.4189601 2.2673726 1
7.1353536 -5.6190028 1.7111758 1
9.2581434 -7.332653 2.225158 1
4.9308667 -3.9546099 1.1908983 1
4.9357972 -3.9798417 1.1946014 1
4.8980188 -3.9734197 1.1883062 1
4.8671064 -3.9709301 1.1834923 1
4.9167747 -4.0343747 1.1983044 1
4.911654 -4.0560589 1.200156 2
4.8814564 -4.0555425 1.1957123 2
5.1755304 -4.5612383 1.2997679 1
7.1846747 -6.4396524 1.8178234 1
5.1073961 -4.6051812 1.2956945 1
9.3251514 -8.5090656 2.378464 1
6.0715427 -5.5693951 1.5523154 2
5.960144 -5.5017886 1.5282456 2
5.9644299 -5.5405507 1.5338 5
5.9657054 -5.5709019 1.5378735 2
4.5023303 -4.2294488 1.1638662 2
4.4905019 -4.2420049 1.1638662 1
5.8765211 -5.5824604 1.5271345 1
4.4915724 -4.2922401 1.1705316 2
6.8070569 -6.5460019 1.7793118 1
5.1286497 -4.9596038 1.3442043 1
5.006844 -4.8706431 1.3160611 3
4.9552889 -4.8474975 1.3060629 2
5.0123291 -4.9324846 1.3249484 1
5.4781642 -5.4229875 1.4523331 2
5.4560342 -5.4313316 1.4504817 1
7.7605653 -7.7714071 2.0692599 4
7.8163872 -7.8711472 2.0899968 2
7.8634171 -7.9656382 2.1088824 4
7.7654123 -7.9131827 2.088886 2
7.8420858 -8.0388908 2.1159182 5
9.27736 -9.5601282 2.509922 4
7.8256712 -8.1150484 2.1240649 2
7.8042789 -8.1410704 2.1248057 5
8.999033 -9.4433126 2.4577091 4
12.868498 -13.574795 3.5241852 4
6.5508952 -6.951642 1.7996784 4
4.7015052 -5.018868 1.2956945 2
4.6879325 -5.034234 1.2960647 1
11.332633 -12.242415 3.1431425 5
4.3074484 -4.6793952 1.1983044 2
4.6062236 -5.0320978 1.2853259 1
4.2870398 -4.7113953 1.200156 2
4.2326722 -4.6811051 1.1890469 3
4.2498083 -4.726521 1.1975639 2
4.3374634 -4.8511887 1.2260772 3
12.239078 -13.765838 3.4704912 2
8.5625458 -9.6918211 2.4366019 5
12.609891 -14.353538 3.5997274 5
4.3627577 -4.9940805 1.2494063 2
4.3363228 -4.9936471 1.2460737 2
8.7251148 -10.108144 2.193815 2
5.5338149 -6.4109869 1.5956408 4
12.322902 -14.35708 3.1084991 3
5.4685278 -6.3712339 1.5819397 2
12.272614 -14.389712 3.1072021 3
5.425528 -6.361464 1.5752741 5
12.240041 -14.432961 3.1091475 3
8.9086647 -10.504737 2.5950921 4
4.2238989 -5.0089397 1.0764803 1
12.737378 -15.104708 3.7226682 2
4.1941996 -5.0055447 1.0729136 1
11.899665 -14.201591 3.4908576 7
4.248795 -5.1013718 1.0907469 1
11.880117 -14.26402 3.4975233 2
4.1652999 -5.0296187 1.0729136 1
8.7939939 -10.618787 2.5976841 3
4.1437116 -5.0320897 1.0709683 1
5.8345418 -7.0854201 1.7293206 8
8.277524 -10.11316 2.1471243 6
5.4948082 -6.7133446 1.6345228 8
8.2816401 -10.176033 2.1555545 2
5.4574313 -6.7057972 1.6289682 4
8.199995 -10.140616 2.1425848 8
8.2181511 -10.16307 2.462523 8
3.960068 -4.9253306 0.88820285 2
8.1704082 -10.161937 2.1422608 6
7.4015527 -9.2056742 2.2255282 1
3.9565644 -4.9509835 0.89070791 5
4.0497818 -5.0676289 1.0657804 2
5.7889366 -7.2438927 1.7470953 2
3.9361949 -4.9520226 0.88903785 5
4.0856209 -5.1400113 1.07875 1
5.1499076 -6.4789624 1.559351 1
3.8895631 -4.9232736 0.88180083 1
4.147429 -5.2496715 1.0991771 1
5.1416283 -6.5080943 1.5626838 5
5.8624759 -7.4686356 1.3343918 6
5.8637071 -7.4702044 1.560248 4
4.0690136 -5.1838136 1.2416301 2
5.8208799 -7.4611163 1.5547358 8
5.8114314 -7.4490056 1.7800523 4
5.8084383 -7.488193 1.3318866 19
5.8000221 -7.4773426 1.5547358 8
5.786994 -7.4605465 1.7789415 4
5.7875037 -7.504384 1.3318866 19
5.793581 -7.5122638 1.5586268 12
5.7745385 -7.4875722 1.7815336 4
5.7870121 -7.547235 1.3366185 6
5.400311 -7.0429115 1.458112 8
4.879384 -6.3635354 1.5108413 4
6.3878021 -8.3821535 1.7314472 2
4.6841702 -6.146626 1.4560362 2
7.0582118 -9.3190994 1.3670938 4
6.2850075 -8.2982225 1.4629877 5
4.8555865 -6.4109287 1.3212824 2
4.6469254 -6.1354294 1.4501113 5
7.0417204 -9.3514681 1.3689522 1
6.421453 -8.5277481 1.5002862 5
4.1004405 -5.4454222 1.1199286 1
6.2932301 -8.3574667 1.9711294 4
7.748354 -10.349904 1.8170441 7
4.7115283 -6.2934489 1.4812168 2
8.5485821 -11.493902 1.6751255 6
5.7691207 -7.7568083 1.3586079 7
4.7234035 -6.3508005 1.4912151 5
5.3593731 -7.2533622 1.0546484 5
7.7231879 -10.452542 1.8265079 5
4.0273952 -5.4506664 1.1134439 1
4.7314596 -6.4035454 1.5001024 5
8.4701366 -11.522262 1.6723379 2
4.7567611 -6.4708099 1.1286939 1
4.0222468 -5.4716215 1.1157135 1
4.7379169 -6.4451756 1.5071381 5
8.4655275 -11.592127 1.67861 4
4.6908555 -6.4233437 1.1178385 1
5.1363645 -7.0333943 1.4308758 6
3.3834906 -4.6331258 -1.080918 1
7.7765803 -10.648729 2.4843709 4
8.7449579 -12.049664 1.7410991 7
4.7985744 -6.6119485 1.1481781 1
6.1842399 -8.5212545 1.729826 6
3.2923834 -4.5365701 -1.0561076 1
7.7691936 -10.70516 2.4921474 4
4.3832521 -6.0752935 0.69891894 2
8.7205725 -12.086926 1.7429575 7
4.6978164 -6.5112877 1.1284156 8
7.9675536 -11.043222 2.2372632 4
3.2739522 -4.5377774 -1.0542561 1
7.5541239 -10.4702 2.4325283 4
4.3685913 -6.0907469 0.69929057 4
5.9000211 -8.2258863 1.183808 5
4.6449857 -6.4760995 1.1200652 4
7.9562387 -11.092691 2.2427754 2
3.1925373 -4.451077 -1.0320379 1
8.0792837 -11.264243 2.6117556 9
4.9308057 -6.9178419 0.59404618 2
8.6392832 -12.120776 1.7406346 9
4.6165538 -6.4769511 1.1178385 4
5.2726479 -7.3974409 1.4924816 6
3.2534661 -4.5645609 -1.0561076 1
7.9933505 -11.214543 2.5947216 9
4.9230027 -6.9478631 0.59544122 2
5.9797769 -8.4392939 0.96496153 3
8.643301 -12.198341 1.7483004 9
5.2622385 -7.4266281 1.4953997 6
3.2668417 -4.6105127 -1.0646247 1
8.1790352 -11.54312 2.6654499 4
4.3005652 -6.1100135 0.52247596 5
4.2649183 -6.0593686 0.69130182 4
5.6310539 -8.0003004 1.1440845 3
4.7672696 -6.7730823 1.1640439 2
5.245697 -7.4528065 1.4973451 8
3.2025661 -4.550035 -1.0483313 1
5.0408459 -7.1617646 1.6500757 6
4.2881351 -6.1309209 0.52317357 5
4.2583346 -6.0883136 0.6931597 7
7.9082737 -11.30678 1.6135656 2
5.2863441 -7.5581007 1.2962583 9
5.2416596 -7.4942136 1.5025331 2
3.4143472 -4.8816309 -1.1223921 1
5.1986842 -7.4327698 1.708954 5
3.3734343 -4.8501225 -0.83030677 1
3.324548 -4.7798367 -0.68087548 2
5.9399409 -8.5400925 0.48511985 1
8.8175516 -12.677348 1.0798302 4
4.2685328 -6.1370416 0.6974327 4
4.6425705 -6.6748104 0.95080972 5
5.2020779 -7.4792371 1.2803926 6
5.2242751 -7.5111504 1.5031816 6
3.0671229 -4.4097261 -1.0120413 2
5.0692263 -7.2882309 1.6726642 5
6.6892776 -9.6821918 -1.9334494 1
3.3750672 -4.8851385 -0.83448195 1
3.3964593 -4.9161019 -0.69876266 2
3.8689067 -5.5999317 -0.63500935 2
5.9675908 -8.6376076 0.48959184 2
4.2051215 -6.0865755 0.51731402 5
4.2537599 -6.1569753 0.69817585 4
4.5515714 -6.5880337 0.93640697 12
5.3282833 -7.7122622 1.3174127 8
5.1411972 -7.4414701 1.4859967 4
3.0275593 -4.3821487 -1.0035244 1
