# .PCD v0.7 - Point Cloud Data file format
VERSION 0.7
FIELDS x y z intensity
SIZE 4 4 4 4
TYPE F F F F
COUNT 1 1 1 1
WIDTH 1448
HEIGHT 1
VIEWPOINT 0 0 0 1 0 0 0
POINTS 1448
DATA ascii
6.2969885 2.0496609 -2.2376177 8
5.3420258 1.7388219 0.26198521 2
9.6527328 3.1419511 0.70984191 9
8.5873232 2.7951617 0.84252995 5
6.8661032 2.2349069 -1.8902688 13
6.3278728 2.0597136 0.77820975 4
7.4947348 2.4395256 -1.8675302 8
8.94771 2.912467 -2.0001106 10
7.2287807 2.352958 1.2489766 3
9.5762796 3.1170657 -1.8974388 4
9.1221352 2.9692421 1.8074548 1
7.3645129 2.3758349 -1.2713492 8
7.362339 2.3751338 -1.0872203 9
6.5166235 2.1023009 -0.80074298 10
6.513711 2.1013613 -0.63853925 33
6.4918833 2.0943196 -0.47699475 27
6.4740524 2.0885673 -0.31723318 7
6.566875 2.1185124 -0.16020092 2
10.611473 3.4233234 0 2
10.905465 3.518167 0.26604217 3
6.3023324 2.0331693 -2.2376177 8
5.3826852 1.7364857 0.26375538 5
8.1001387 2.6131523 0.59516227 6
9.6559076 3.1150525 0.94656891 7
7.1775951 2.3155344 -1.9743483 5
6.2557321 2.0181358 0.7686854 1
7.6363001 2.4635153 -1.9011918 8
8.2840452 2.6724815 1.2233316 6
7.2386718 2.335238 1.249625 3
7.3828368 2.3817465 -1.4615908 7
5.2468228 1.6764944 -0.90495682 4
7.36517 2.3533607 -1.0866637 19
7.3853192 2.3597987 -0.90667236 20
6.5309343 2.0868011 -0.63965392 9
6.5091095 2.0798273 -0.47783184 20
6.5002375 2.0769925 0 2
10.928579 3.4919612 0.26636711 10
6.3043756 2.0144095 -2.2363372 8
5.3856101 1.7208405 0.26366222 8
6.6098342 2.1120114 0.48522604 4
9.7138882 3.1038363 0.95139927 5
7.1139984 2.2731049 -1.9551011 5
9.741128 3.11254 1.1958877 4
7.6060743 2.4303358 -1.8919694 8
12.326849 3.9387443 1.8187143 2
7.3849688 2.3596869 -1.6479082 3
10.307535 3.2935216 1.7778137 2
7.2977228 2.3318095 -1.4434458 5
7.391655 2.3362541 -1.2736189 2
9.5366964 3.01423 -1.4056485 4
7.3908029 2.3359847 -0.90644008 25
6.5108762 2.0578694 -0.63705295 35
6.5460496 2.0689867 -0.48006406 2
6.4920478 2.0519185 -0.31751266 20
6.4782867 2.047569 -0.15774058 16
6.4897256 2.0511844 0.1580191 7
6.3070607 1.9934502 -2.2350569 8
5.3776555 1.6996965 0.26301005 6
6.6868248 2.113481 0.49038801 1
12.398956 3.9188941 1.2131687 6
7.01226 2.2163401 -1.9252175 10
7.2277002 2.2844336 -1.7960569 4
12.376933 3.9119332 1.8242812 10
7.2916179 2.3046358 -1.6254537 6
9.2828493 2.9339974 1.5994811 6
9.9024343 3.1298273 -1.9566876 7
7.4452353 2.3303425 -1.2817248 5
7.893116 2.4705284 -1.1623738 6
7.385922 2.3117776 -0.90504628 7
7.4136033 2.3204417 -0.72474295 27
7.4447961 2.3302052 -0.54549563 4
6.5797367 2.0594435 -0.32151884 18
6.4973364 2.0336523 -0.15806553 19
6.4800005 2.0282261 0 23
6.3198352 1.9780948 -2.2376177 10
7.3660922 2.3055711 0.72009832 3
6.65836 2.0840523 -1.8264494 12
6.8718843 2.1508849 -1.7061387 3
8.5357552 2.6716731 1.2570115 6
9.0081787 2.8195405 -2.0063481 10
9.3550425 2.928108 1.6105052 6
8.3824492 2.6236887 -1.6548896 2
7.4027028 2.2943497 -1.2732947 2
7.8924189 2.4461293 -1.1612605 1
6.6125097 2.0494421 -0.80957043 5
7.4295654 2.3026752 -0.72567183 9
7.446095 2.3077984 -0.3635371 3
6.522089 2.0214176 -0.15852974 3
6.48946 2.0113046 0 16
6.4800725 2.0083952 0.15750846 31
6.325335 1.9604367 -2.2376177 10
6.583303 2.0403898 -1.97632 6
6.5393872 2.0267787 0.63872498 3
7.0688829 2.1908875 -1.9373736 10
11.306728 3.5043399 1.384284 1
6.6213388 2.0521784 -1.6425045 3
8.59237 2.6630681 1.2642486 6
6.6615758 2.0646491 -1.4824104 8
9.3669548 2.9031382 1.6111538 2
6.5931487 2.0434413 -1.3005084 8
6.613245 2.0281875 -1.1364648 10
6.6272144 2.0324719 -0.97421181 5
6.5520897 2.0094321 -0.80143982 7
10.295917 3.1576104 -1.0047193 10
7.4390182 2.2814405 -0.54410046 14
7.4509983 2.2851145 -0.36344394 13
10.957194 3.3604147 -0.26608858 8
6.5011339 1.9938047 0 1
6.4955597 1.9920951 0.15774058 18
5.0661621 1.5537195 0.3705464 4
6.5635934 2.0129602 -1.9686021 9
6.4825435 1.9881034 0.63259417 4
6.7812381 2.0797086 -1.8568395 10
7.3288364 2.2476492 -1.816346 12
8.6362076 2.6486013 1.2695372 4
7.0697885 2.1682029 -1.5718125 6
8.3861465 2.5719111 -1.6526678 8
6.6223025 2.0107484 -0.80933809 10
10.845844 3.293154 -1.0574819 10
6.7829146 2.0595152 -0.49568951 3
7.4516158 2.2625549 -0.36316442 17
7.4691834 2.267889 -0.1812299 13
10.226966 3.105242 0 12
11.039239 3.3518751 0.2678526 21
6.4919667 1.971174 0.31639466 11
5.0437551 1.5314494 0.36859322 4
6.5250401 1.9812161 -1.9553715 10
6.5611558 1.9921821 -1.7950462 15
7.0799685 2.1497104 -1.7531729 11
7.385221 2.2423952 1.0847152 5
5.4865656 1.6659013 -1.2187785 3
9.8612862 2.99421 1.6931868 6
5.254508 1.595441 -1.0346299 5
10.711226 3.2175958 -1.8374741 7
10.495014 3.1526473 -1.5400897 4
9.6569881 2.9009085 -1.1791619 10
10.418829 3.1297617 -1.0149374 10
12.153695 3.6509063 -0.59179592 5
7.4701362 2.2439897 -0.18109064 18
7.4778953 2.2463205 0 10
11.070201 3.3254304 0.26836324 14
11.101344 3.3347855 0.54055411 11
6.3174424 1.8977267 -2.0583146 4
5.0540094 1.518198 0.36901176 5
6.6045399 1.9839691 -1.9774225 10
6.465281 1.9421365 0.62980735 31
6.576304 1.9754872 -1.7975788 12
6.4379916 1.933939 0.78610796 4
7.2876105 2.1891601 -1.8029735 8
5.1839633 1.5572355 0.76072019 4
5.510221 1.6552414 -1.2229367 1
5.298748 1.5917162 -1.0424063 5
10.769909 3.2004244 -1.8459044 7
10.312967 3.0646381 -1.2581445 10
6.7401614 2.0029304 -0.65600288 2
9.8320227 2.9217188 -0.71723604 4
12.053398 3.5818305 -0.58639222 10
7.4787745 2.2224193 0 17
7.4748425 2.2212508 0.18104421 21
7.4859757 2.2245591 0.36418927 9
5.043191 1.4986525 0.36789563 5
6.6030245 1.9621782 -1.9752175 13
6.4729223 1.9235166 0.6299932 19
6.4379878 1.9131354 0.78541106 4
7.3668265 2.1891525 -1.8209572 12
5.1980529 1.5446718 0.76211196 4
7.0509353 2.0952809 -1.5634961 6
7.5284452 2.2371795 -1.4797357 7
11.108246 3.2672307 -1.9023222 7
9.8183718 2.8878443 -1.1968169 2
10.131012 2.9798 -0.98521197 2
12.582982 3.7009897 -0.91715813 9
12.032687 3.5391335 -0.58490157 7
10.036859 2.952107 0 6
7.4848537 2.2014945 0.18113706 19
7.4825764 2.2008247 0.36372343 25
5.033958 1.480621 0.36691904 5
6.5992565 1.941017 -1.972461 13
7.4907975 2.2032428 0.72845864 14
6.4566464 1.8990715 0.78703719 4
7.3505077 2.1619799 -1.8154238 12
5.2213469 1.535737 0.76489544 6
11.685794 3.4016781 -1.9995946 7
11.394426 3.3168623 -1.6678505 5
7.7436285 2.2541327 -0.94314378 5
6.8793468 2.0025446 -0.66845047 7
10.217901 2.9743817 -0.74416202 10
10.241324 2.9812 -0.49741787 8
10.956171 3.1892881 -0.26492804 6
7.4982834 2.182714 0.36418927 4
7.4900632 2.1803212 0.54549563 7
6.7264814 1.9580462 -2.0088453 10
7.4988327 2.1828737 0.72864443 19
7.5300107 2.1919496 0.91712594 4
7.236928 2.1066349 -1.7859122 4
5.195189 1.5122944 0.7604419 5
7.0700412 2.0580547 -1.5651593 4
11.925914 3.4309678 -2.0388277 7
10.236143 2.9448373 -1.496946 6
7.7487626 2.2292426 -0.94291139 10
10.219527 2.9400575 -0.743604 14
10.259015 2.9514174 -0.24784489 13
10.084952 2.9013414 0 8
11.431146 3.2886279 0.27616206 3
10.588552 3.0462222 0.51381522 6
6.4731407 1.8622588 -2.1018043 6
10.7909 3.1044357 0.78517884 7
6.7067337 1.9294611 -2.0011272 12
11.235516 3.232347 1.0907372 3
7.5387692 2.1688297 0.91735828 4
7.4959965 2.1565244 -1.8481634 4
5.1961083 1.4948691 0.75988513 13
8.8625107 2.5496571 -1.9601916 1
10.238519 2.9145899 -1.7489562 6
10.227182 2.9113629 -1.4944409 11
7.7683311 2.2114038 -0.94453746 10
9.9076452 2.8204005 -0.96106005 2
7.5988145 2.1631477 -0.55247128 7
10.245384 2.9165442 -0.4967657 2
10.265294 2.9222119 -0.24779847 16
10.252671 2.9186187 0 8
6.7537861 1.9225942 0.16303264 4
5.4262877 1.5446965 0.26310322 5
6.5021868 1.8509717 -2.109549 6
4.9123645 1.3983984 0.35715315 4
7.5499587 2.14924 0.73236006 3
6.9224381 1.9706042 -1.8841908 10
7.1407399 2.032748 -1.7591674 3
5.2231207 1.486861 0.76322532 9
9.6292868 2.7411604 -1.8863297 9
10.235222 2.8827739 -1.7470109 6
13.348368 3.759599 -1.9489802 4
7.7725649 2.1891608 -0.94430518 7
11.454655 3.2262301 -1.1102445 5
10.533234 2.9667096 -0.25406536 4
10.208805 2.8753338 0 6
10.300359 2.9011199 0.24844837 13
10.33041 2.909584 0.50049239 15
6.6047297 1.8602375 -2.1411238 1
7.5712667 2.1324649 0.73384637 3
6.9726105 1.963852 -1.8963468 10
8.432229 2.3749571 1.0244492 1
7.4404869 2.0956304 -1.8315629 4
5.2501292 1.4787111 0.7665655 4
8.9255714 2.5139079 -1.9710031 7
7.6466742 2.1292377 -1.3040975 2
10.005288 2.786 -1.4596477 6
6.6701713 1.8573276 -0.64597058 4
10.910606 3.0380886 -0.52816296 9
12.077155 3.3629174 -0.2910634 9
5.5065088 1.5333027 0 4
5.4395356 1.5146537 0.13109457 4
10.362093 2.8853536 0.5016104 12
8.5702286 2.3864038 0.62208819 4
10.43593 2.9059136 1.0106643 5
6.8367515 1.9037123 -1.8578526 13
8.4277563 2.3467321 1.0230554 4
7.3866792 2.0568411 -1.8168073 4
5.241138 1.4594094 0.76461709 4
8.9895296 2.5031593 -1.9834778 7
9.8191071 2.7341576 -1.9203976 4
7.6621051 2.1104939 -1.3057188 5
9.7056122 2.6733692 -1.4148338 4
9.684864 2.667654 -1.1747482 7
11.238825 3.095686 -1.0875789 5
5.7444615 1.5822872 -0.13833636 4
5.479919 1.5094202 0 4
5.4553103 1.5026418 0.13137311 6
10.926753 3.0097272 0.5285356 15
10.433032 2.8737338 0.75671822 15
12.004847 3.3066833 1.1617067 4
7.1181107 1.9606529 -1.9328151 21
5.5349145 1.5245684 -1.3602997 1
5.2089138 1.434773 0.75932848 1
9.8570213 2.7150741 -1.9263225 9
7.6759491 2.0898256 -1.3070157 9
9.6869869 2.6373432 -1.1740514 10
11.370931 3.0958076 -1.0994691 7
5.8311815 1.5875759 -0.28182974 4
12.186999 3.3179874 -0.2932452 9
5.4959517 1.4963075 0 2
10.632032 2.8946378 0.25582939 6
10.498055 2.8581617 0.50738674 6
10.786098 2.936583 0.78169101 4
6.6780095 1.8181303 -1.9845891 4
12.001155 3.26739 1.1604061 6
6.9950838 1.9044557 -1.8978664 23
9.6199007 2.6190786 1.1659207 2
5.5356584 1.5071179 -1.3593776 1
9.9457903 2.7078042 1.693511 4
7.6626983 2.0632524 -1.3037734 5
7.8447604 2.1122744 -1.1417762 1
7.7186217 2.0783105 -0.9347809 7
7.6472445 2.0590913 -0.73886251 6
10.801962 2.9085283 -0.78224909 15
10.494419 2.8257196 -0.50682771 2
10.46438 2.8176312 -0.25160503 2
5.4923835 1.478875 0 3
10.168983 2.7380929 0.24450253 6
10.299579 2.773257 0.49741787 8
11.57642 3.1170583 0.83833331 10
7.4799547 2.0140471 0.72269928 3
9.6444407 2.5968552 1.1680115 1
8.980382 2.4180512 -1.9768245 8
9.9533119 2.6800215 1.693511 6
9.7358513 2.6214681 -1.8996606 9
12.246675 3.2975309 2.3895731 4
7.7832179 2.0709531 -1.3232278 6
7.684442 2.0446708 -0.92990255 10
10.78548 2.8697929 -0.78043544 7
5.4909492 1.461028 0 3
10.300727 2.7408102 0.24747352 6
6.3317609 1.6847504 -2.2139292 8
10.774981 2.8669994 0.51996428 9
12.543857 3.3376606 0.90767127 11
12.067884 3.2110143 1.1650507 6
7.0807266 1.8840348 -1.9181265 2
8.187396 2.1784966 0.99076557 1
5.2097526 1.3862072 0.75765842 4
9.0234385 2.40095 -1.9847252 8
9.9879227 2.6575797 1.6980505 8
8.1120596 2.1584511 -1.5815693 2
7.7988701 2.0503609 -1.3248489 6
9.8338957 2.5853791 -1.4290296 4
7.6558928 2.0127714 -0.92572111 10
10.661817 2.8030434 -1.0284996 7
12.520901 3.2918055 -0.90529954 6
10.476224 2.7542503 -0.50515074 2
10.262403 2.6980357 -0.24635939 3
5.4971943 1.4452391 0 3
10.146378 2.667532 0.2435741 12
6.3477263 1.668848 -2.2177706 8
9.9197598 2.6079531 0.47831869 2
10.871129 2.8580725 0.78601593 9
4.8937273 1.2865847 0.47207686 4
9.1966772 2.4178512 1.1120268 1
5.5297775 1.4538053 -1.3547664 1
5.1985188 1.3667158 0.75543165 6
9.2651291 2.4358475 -2.0362873 8
6.9590511 1.8295683 1.1821829 6
9.0346251 2.3752468 -1.7600559 4
7.7648072 2.0167911 -1.3180399 5
11.854302 3.0789757 -1.7212931 5
10.648885 2.7658868 -1.026456 2
11.22522 2.915581 -0.81098878 7
10.152313 2.6369097 -0.24352768 11
5.5092015 1.4309317 0 3
6.6359668 1.7235919 0.15917964 8
6.3178058 1.6409545 -2.205606 8
10.714458 2.7829182 0.51623762 4
13.90041 3.6104209 1.3398734 6
5.5265326 1.4354333 -1.352922 1
5.1891327 1.3477987 0.75348318 5
9.1795368 2.3842456 -2.0159118 7
6.956809 1.8069258 1.1808859 6
10.205524 2.6203325 -0.49136204 30
10.322316 2.6503196 -0.24742711 1
5.5461073 1.423998 0 4
6.6426907 1.7055526 0.15922606 8
6.3425512 1.6284899 -2.2126486 8
12.385057 3.1799414 0.89413851 8
6.3740497 1.6365774 -1.8870134 5
10.930456 2.8064632 1.0528373 3
5.1949477 1.3338355 0.62721378 4
5.441925 1.3972485 -1.3312492 1
5.2274055 1.3421693 0.75849348 7
7.0382891 1.807125 1.1938555 1
9.8648319 2.5328574 -1.9189165 6
10.568666 2.6821425 -1.2751025 7
10.398179 2.6388757 -0.75016111 17
10.133406 2.571681 -0.48754218 8
6.6474261 1.6870004 0.15922606 8
6.3489099 1.6112421 -2.2132888 8
9.7887201 2.4842057 0.4709585 8
6.3603301 1.6141404 -2.0475912 5
10.25111 2.6015522 0.98669827 7
5.2198315 1.3247019 0.62976915 7
5.287354 1.3418379 -1.2925154 7
7.312067 1.8556746 1.0602208 3
10.312457 2.617121 1.7479836 4
6.71523 1.7042078 -1.3053223 21
10.516386 2.6376343 -1.2679011 2
10.132647 2.541388 -0.73048979 16
10.971869 2.7518749 -0.52751076 2
5.5268149 1.3861908 0 4
6.6559911 1.6694015 0.15931891 8
6.5037022 1.6312057 -2.0922723 6
11.572428 2.9025021 0.83428746 4
10.892109 2.7318702 1.3131999 9
5.3458228 1.3407958 -1.3058877 5
5.2213731 1.3095822 0.75654507 3
10.415439 2.6123157 1.7641957 12
9.4575148 2.372057 -1.8370793 6
12.574433 3.1538169 2.4425266 2
6.7472711 1.6697806 -1.141977 3
6.7374549 1.6673514 -0.81166112 5
11.620438 2.8757675 -0.55825585 10
10.230537 2.5318017 -0.24468823 7
5.5796785 1.3808308 0 4
11.655164 2.8843613 0.27876166 10
11.546629 2.8575015 0.8317762 11
11.441656 2.8315234 1.0996548 3
6.2579737 1.5486917 -1.6876677 4
11.685453 2.8918571 1.4077466 3
7.2883458 1.803683 1.0552105 5
10.274166 2.542599 1.7389048 4
10.283396 2.544883 1.9959397 5
8.0210047 1.9612448 -1.3566245 5
6.7476683 1.6498967 -0.3239412 7
6.7803726 1.6578934 -0.16205779 4
5.5699134 1.3619196 0 4
6.6075134 1.6156269 0.15792626 5
11.246113 2.7498279 0.53990197 5
6.60676 1.6154428 0.47559965 6
6.2397203 1.5256966 -1.6815896 6
12.145014 2.9696212 1.462105 5
9.813611 2.3995616 1.4198442 5
9.911232 2.4234312 1.6763262 4
6.2410975 1.5260333 -1.2105244 4
12.638748 3.0903461 2.4514139 4
8.0750904 1.9476025 -1.3647306 2
10.111189 2.4386818 -1.2163302 10
6.7644715 1.6314989 -0.3245002 4
5.6052728 1.3519158 0 1
6.3454823 1.5304444 -2.205606 8
6.7702975 1.6329039 0.32477966 4
11.838793 2.8553565 0.851587 10
6.7388358 1.6253159 -1.6425045 13
9.8288021 2.370574 1.4209574 5
9.8053722 2.364923 -1.9004014 9
6.4655838 1.5594113 1.2531095 3
11.062969 2.6396523 -1.8686013 3
7.9813132 1.9043615 -1.1531883 6
7.8854017 1.8814768 -0.94802207 10
18.307623 4.3682451 -0.87772501 5
6.466476 1.5429175 0 5
6.6631103 1.5898349 0.15904038 11
5.0185428 1.1974369 -1.7433571 1
6.7068901 1.6002809 0.48215672 11
6.6329927 1.5826488 -1.9553715 6
10.32797 2.4642794 0.99059969 2
6.3177772 1.5074376 -1.7003301 7
9.8350143 2.3466592 1.1824142 9
6.8336501 1.6305261 -1.664638 13
7.3918171 1.7637062 1.0680145 6
9.7308273 2.3218 -1.8848485 15
6.4865813 1.5477146 1.2564422 3
8.0781574 1.9006673 -1.3634337 1
10.180728 2.39537 -1.2230669 7
9.6153183 2.2623377 -0.6907286 1
11.87838 2.7948017 -0.56906319 10
5.6248469 1.3234407 -0.1341584 4
9.4674759 2.2275527 0 5
11.932852 2.8076179 0.28461081 11
4.9595699 1.1669111 -1.7215891 4
11.918643 2.804275 0.85619092 10
6.6566453 1.5662072 -1.9608842 7
6.7049971 1.5775836 0.64262646 4
9.8326683 2.3134768 1.1812526 8
6.6227779 1.5582386 -1.6120704 6
7.3896098 1.7386625 1.0669011 5
10.500643 2.4706411 1.7723016 4
6.2273922 1.4652103 -1.2053401 13
10.847186 2.5202324 -1.3022817 7
11.631037 2.702352 -0.83498496 3
20.074886 4.6641936 -0.9611094 6
12.378851 2.8760991 -0.29505566 7
9.8106813 2.2794113 0 6
6.5692048 1.5262873 0.15658003 9
4.7265725 1.0981706 -1.6396391 4
6.4977064 1.5096754 -2.0815489 2
6.7706819 1.5730985 0.48606312 6
6.6628652 1.5480484 -1.9614354 9
6.7586908 1.5703125 0.81142884 3
6.6157298 1.537097 -1.6093038 12
12.381291 2.8766661 1.7864261 9
6.246357 1.451277 -1.3630692 3
10.419074 2.4207649 1.7573864 4
6.2257161 1.4464812 -1.2042292 4
12.686907 2.9476726 2.454006 4
10.124198 2.3206112 -1.7064807 26
11.845978 2.7152679 -1.4212201 8
6.9410715 1.5909932 -0.66436321 2
11.850977 2.7164137 -0.85019189 8
19.666069 4.5077448 -0.94089216 5
10.301987 2.3613632 -0.24538454 13
12.054066 2.7629647 0.28711757 11
5.047471 1.1569527 -1.7497593 1
6.498435 1.4895345 -2.0803573 9
11.596221 2.6580203 0.83191574 7
6.6355729 1.5209684 -1.9520638 13
5.3069043 1.2164186 -1.4252992 7
6.6506128 1.5244159 -1.6166818 15
9.833828 2.2540543 1.4178957 7
10.260777 2.3519173 1.7295017 6
12.360343 2.833168 2.3892028 4
6.2002802 1.4018443 -1.0443804 17
11.685039 2.6419137 -1.1176759 7
12.300727 2.7811167 -0.88186133 4
9.8447924 2.2258453 -0.23433621 5
10.309775 2.3309753 0 8
6.3371649 1.432793 -2.1953623 8
6.4972396 1.4689848 -2.0785701 9
10.298284 2.328377 0.73830253 6
6.67381 1.5089064 -1.9619869 10
12.34543 2.791224 1.1808424 6
5.3104901 1.2006682 -1.4252992 7
11.813292 2.6709106 1.4163417 6
7.008172 1.5845035 -1.7024498 14
6.6858797 1.5116353 0.96335632 13
6.6078639 1.4939964 -1.4399965 22
10.200337 2.3062317 1.7181534 4
6.6003437 1.4922961 -1.2749574 6
5.4635434 1.2352726 1.055367 6
6.2063384 1.3838691 -1.0447047 5
7.9700246 1.77713 -1.1476215 4
13.275302 2.9600835 -1.5905677 3
9.3757534 2.090575 0 13
12.027316 2.6818116 0.28609627 7
6.3284435 1.4110956 -2.1908805 8
6.5071602 1.4509453 -2.0803573 5
6.6364217 1.4797676 0.47546014 9
5.4154124 1.2075109 -1.5909789 2
11.146446 2.4853981 1.3355007 3
7.3359795 1.6357528 1.0563239 8
5.6671128 1.2636343 -1.2341639 4
9.9952488 2.2287078 1.6824868 8
6.6220078 1.4765537 -1.2782902 27
5.394289 1.2028009 1.0412954 8
6.5530095 1.4431715 -1.1024196 3
6.1584492 1.3562773 -0.88625443 5
9.5679541 2.1071539 -1.1457106 5
10.091305 2.2224114 -0.96403259 7
9.2200031 2.0305245 -0.66017526 6
9.0940742 2.0027909 0 21
6.2932572 1.3859662 -2.1774359 10
6.5053425 1.4326738 -2.0785701 6
6.6052003 1.4546655 0.47294888 6
5.4241877 1.1945707 -1.5926328 1
6.7152195 1.4788951 0.64151174 4
6.3374548 1.3956997 -1.6988107 4
9.6649542 2.128516 1.1573256 1
5.4907532 1.2092304 -1.3321716 5
7.35571 1.6199505 1.0585507 10
5.6933279 1.2538435 -1.2391539 4
6.6281762 1.4597255 1.115065 5
7.313004 1.6105454 -1.4108591 31
5.3878222 1.1865618 1.039444 2
9.2045412 1.9984999 -0.65864062 12
9.0902042 1.973675 0 21
9.0486755 1.9646584 0.2149784 33
6.2621608 1.3596472 -2.1652713 10
6.5058336 1.4125537 -2.0773787 9
6.6016889 1.4333658 0.47239083 6
6.8577452 1.4889611 0.65470243 3
6.3245521 1.3731936 -1.6942523 7
5.5000224 1.1941708 -1.333555 3
7.372097 1.6006378 1.0602208 5
7.3258367 1.5905936 -1.5934354 16
6.6710505 1.4484258 1.1215498 6
7.3119888 1.5875869 -1.4097482 35
7.1737008 1.5575616 1.3830862 6
7.2983842 1.5633055 -1.2262796 26
9.1847239 1.9673572 -0.65682697 27
9.181529 1.9666729 -0.43788427 7
9.1245117 1.9544599 -0.21664958 13
9.1250153 1.9545677 0 8
6.280755 1.3453305 -2.170393 10
6.5078855 1.3939816 -2.0767827 9
6.5978622 1.4132545 0.47183278 6
6.6040239 1.4145744 -1.9366282 15
6.6691051 1.4285146 0.6363098 6
6.3321452 1.3563381 -1.6952652 9
11.209608 2.4010851 1.3406115 6
5.5318794 1.1849222 -1.3404716 1
7.8505592 1.6815808 -1.7065393 24
11.281426 2.4164686 1.8955132 8
7.3279243 1.5696329 -1.41197 20
7.0857744 1.5177647 1.3653116 5
7.3032594 1.5403707 -1.2262796 31
6.1278901 1.2924671 -0.43793115 10
12.485865 2.6334624 -0.29626262 7
12.518583 2.6403635 0 5
11.493961 2.4242547 0.27272686 3
6.5066285 1.3723489 -2.0749958 9
6.7269468 1.4188174 -1.9713585 10
8.9942045 1.8970174 0.8575784 8
6.3269091 1.3344433 -1.6927327 9
8.9624033 1.8903099 1.0711417 5
8.026165 1.6928428 -1.7435477 8
5.4030991 1.1395974 0.90722644 3
9.823247 2.0718751 -1.8915139 15
5.1635509 1.0890729 0.99426681 3
7.3229904 1.5231831 -1.2288736 25
9.2704649 1.9282581 -0.88340235 14
8.8192463 1.8344045 -0.62990099 13
5.8452849 1.2158201 -0.13861488 3
8.911272 1.853546 0 6
7.7104158 1.6037676 0.36726376 2
6.5085664 1.3537828 -2.0743997 5
6.6988854 1.3933691 -1.9619869 12
8.9994678 1.8718907 0.8575784 10
6.2984085 1.3100699 -1.6841221 9
7.0745149 1.4715002 -1.7121332 10
6.8146453 1.4174472 -1.4794997 9
5.4217186 1.1277182 0.90982044 6
7.9470921 1.6529963 -1.5293564 8
7.3294129 1.524519 1.4104887 10
7.4263449 1.5203582 -1.2454098 2
8.9011946 1.8222967 -0.635342 4
5.8686638 1.201462 -0.13907909 4
10.882291 2.2278767 0 9
11.018436 2.255749 0.26112148 3
6.722064 1.3761743 -1.9674996 13
11.122018 2.2769549 1.0591539 3
6.3081799 1.2914419 -1.6856415 9
8.9656801 1.8354985 1.0702126 7
7.1191411 1.4574659 -1.7218168 10
5.4755034 1.1209722 0.91825062 2
7.3129854 1.4971508 1.4064153 10
10.645673 2.1523423 -0.2521621 24
10.166299 2.0554225 0 8
6.2134461 1.2562345 -2.3072679 7
11.043513 2.2327776 0.26158568 10
6.2419772 1.2620031 -2.1518264 10
6.7107759 1.3567848 0.31928283 4
6.6801815 1.3505992 -1.9542689 15
11.156827 2.2556875 1.0619407 5
6.6962919 1.3538564 -1.7884617 10
10.625144 2.1481919 1.2676688 2
7.1646471 1.4485484 -1.7319614 3
5.3365164 1.0789369 0.76517373 6
5.0971494 1.0305418 0.85437524 2
7.9022603 1.5976791 -1.5189879 6
7.2703881 1.4699272 1.3975281 11
5.8251686 1.1597573 -0.41533005 40
6.5967164 1.313368 -0.15616223 6
12.190737 2.4271049 0 11
6.217145 1.2377975 -2.3072679 7
12.650243 2.51859 0.29946569 8
9.0405359 1.7999182 0.85999358 5
6.762898 1.3464538 -1.8051763 22
5.2950182 1.0542074 0.75877178 13
5.1698642 1.02929 0.86604792 3
6.8313713 1.3600863 -1.3123581 3
7.2650785 1.446435 1.3956766 11
8.1069794 1.5890573 -1.3572731 5
7.3066282 1.4321798 -0.69464594 11
5.7894268 1.1347915 -0.41253981 5
6.5868497 1.2910953 -0.15583728 16
6.5633039 1.2864801 0.15528023 3
5.356122 1.049859 -1.5650691 5
6.2561207 1.2262688 -1.668927 9
6.5381818 1.2815558 0.77913892 4
7.2074919 1.412748 -1.7402614 3
5.3816957 1.0548718 0.77074069 6
8.9787359 1.7599313 -1.9448061 7
5.0934906 0.99838042 0.852754 3
6.8488774 1.3424556 -1.3149502 7
7.3098412 1.4328096 1.403453 11
8.0455027 1.5536867 -1.346249 5
7.3184214 1.4132783 -0.69538909 6
7.2637339 1.4027176 -0.51731402 27
5.9181099 1.1428608 -0.28108442 6
7.2775464 1.405385 -0.17208485 11
5.3665838 1.0363543 -1.5672741 6
6.5734787 1.2694207 0.62460542 13
6.1854329 1.1944842 -1.6491734 9
6.5592899 1.2666806 0.78122962 18
5.5910401 1.0796995 -1.3492329 5
5.3768425 1.0383353 0.76962727 15
6.6325479 1.2808278 -1.4358382 5
5.1195126 0.98864174 0.85664487 5
5.7927237 1.1008301 -0.55010611 10
6.9699364 1.3245437 -0.49610806 5
6.5141044 1.2379189 -2.0690382 5
6.5798864 1.25042 0.46834496 6
5.3828559 1.0229402 -1.571133 3
6.5615649 1.2469381 0.62311912 3
6.2212629 1.1822683 -1.657784 9
6.5591154 1.2464726 0.780765 4
8.5194254 1.6190034 -2.0547445 13
5.3974109 1.0257062 0.77213246 14
5.1243615 0.97381681 0.85696912 2
9.692935 1.8420135 -1.8589272 15
7.1366196 1.3330048 0.16855681 8
6.2823625 1.1734434 -2.1595092 6
7.519639 1.4045466 0.35673591 4
6.5235915 1.2185012 -2.0708253 5
11.281064 2.1071198 1.0706726 3
6.2782001 1.172666 -1.6719661 11
11.38615 2.1267481 1.3545495 10
5.4239688 1.0131094 0.77547252 9
5.152616 0.96242511 0.86118424 2
8.0777206 1.5087872 -1.548242 8
7.2325072 1.331327 0.17073862 31
6.0580726 1.1151423 -2.0814006 16
5.3521662 0.98520231 0.25378653 13
6.5061054 1.1976142 -2.0642722 6
7.2894335 1.3418057 0.51829058 3
6.483407 1.193436 -1.8903211 8
6.4467955 1.1866966 -1.7160318 16
9.2622099 1.7049454 1.101341 3
6.5400038 1.2038541 -1.5756421 2
5.424655 0.99854577 0.77519423 4
5.1648221 0.95071691 0.86280543 5
6.730514 1.2389224 -1.2893993 1
6.9682665 1.2826867 1.3349468 5
7.2738075 1.3166296 0.17162064 12
6.0594897 1.0968263 -2.0807605 35
5.3629289 0.97074211 0.25415921 8
6.4664202 1.1704847 -2.0505698 16
11.437751 2.0703437 0.81280243 16
6.6742053 1.2080959 -1.9448973 13
9.4624729 1.7127993 0.89715034 7
6.5207305 1.1803154 -1.7347724 19
11.143739 2.0171247 1.3243504 6
6.5320568 1.1823655 -1.5728755 5
5.3165083 0.96233952 0.75932848 23
8.9994373 1.6289854 -1.9439745 7
5.1637363 0.9346863 0.86215699 4
6.8037844 1.2315508 -1.3027302 7
11.08479 1.9745036 -1.3166844 10
9.3889236 1.6724235 -0.66687191 6
5.9014907 1.0512166 -0.13917194 9
5.8381038 1.0399257 0 5
7.0589547 1.2573925 0.16646783 42
6.3386068 1.1290789 -2.1755152 10
6.4132748 1.1423792 -2.0326974 13
7.2675772 1.2945539 0.51619792 17
11.410068 2.0324445 1.0812622 5
6.5468588 1.1661742 -1.7408504 16
5.3957191 0.96112484 0.64091957 12
6.6349621 1.1818678 -1.5968536 6
5.4244661 0.96624547 0.77435917 13
9.0405455 1.6103679 -1.9518751 10
5.1838131 0.92337859 0.86507517 3
6.774302 1.206688 -1.296435 7
6.9794078 1.243223 1.3356873 7
5.7697234 1.0100905 -0.96234745 4
8.4529629 1.4798383 -1.0035421 7
11.176957 1.9567207 -0.26344255 12
5.827374 1.0201832 0 3
7.287179 1.2757474 0.1717599 8
7.2635183 1.2716053 0.3438789 55
7.2635255 1.2716064 0.51563984 21
5.4925628 0.96156865 -1.4597414 4
5.4102879 0.94716501 0.64231342 6
7.0429196 1.2329856 -1.6941496 10
9.4558487 1.6554108 1.3491441 6
9.0125256 1.5777993 -1.9448061 7
5.2604012 0.92092478 0.87739629 3
8.0439816 1.408239 -1.538614 16
7.052762 1.2347087 1.3490182 13
5.7746396 0.99330246 -0.9626717 10
11.664049 2.0063467 -1.3840518 7
9.5373259 1.6405265 -0.22468051 3
11.361151 1.9542446 0 23
9.2279549 1.5873111 0.21739231 8
6.0352182 1.0381249 -2.069236 13
7.2908859 1.2541137 0.34499687 24
5.7143497 0.98293197 -1.8092914 4
7.3045392 1.2564622 0.69148761 4
5.5125523 0.94822043 -1.4642998 10
5.3758774 0.92471087 0.63789964 10
6.7588544 1.1625984 -1.6249819 9
5.4105859 0.93068117 0.77157569 4
5.3350749 0.91769236 0.88939321 2
7.1609907 1.2317704 1.3690147 20
10.318446 1.7433794 -1.2237638 10
10.610883 1.7927887 -1.0039761 10
9.2326241 1.5599215 -0.21739231 9
9.2390566 1.5610083 0 5
5.382247 0.90937126 0.12673095 5
6.0606918 1.0239997 -2.0769191 20
7.1488018 1.207844 0.33810255 15
6.1426926 1.0378543 -1.9439307 19
5.5077105 0.93056929 -1.4622738 6
7.2804985 1.2300951 0.86346436 9
7.011734 1.1846855 -1.6849273 14
9.9420023 1.6797764 1.4170606 5
5.3513961 0.90415877 0.89166296 1
5.7150249 0.96559662 -1.0920271 12
7.0463986 1.1905422 1.3464261 10
10.009175 1.6623923 -1.4259677 4
10.378144 1.7236732 -1.2302684 15
10.480299 1.7406398 -0.991157 10
6.2205358 1.0331491 -2.1306987 7
5.4158444 0.89950049 0.25602254 4
6.5505047 1.0879526 -1.738318 9
7.1090856 1.1807256 -1.707522 14
5.6544862 0.93913579 -1.2183626 7
7.3533378 1.2212926 1.2246585 7
8.8024263 1.4619671 -1.6811812 6
7.0593901 1.1724718 1.3482777 11
10.019642 1.6353986 -1.4268028 6
8.865674 1.4470488 -0.83807111 9
10.788297 1.7608578 -0.25378686 2
10.767517 1.7574662 0 6
5.4050016 0.88220036 0.12714875 6
7.2892146 1.1897402 0.86369663 7
5.5892386 0.91227138 -1.341855 5
7.3261051 1.1957614 1.0432416 20
5.676394 0.92649686 -1.2225208 6
5.4342723 0.88697791 0.90463257 3
7.1867795 1.1730208 1.3719771 35
8.1009827 1.2961154 -1.34787 5
12.162002 1.9458574 -0.28595701 6
5.4255161 0.86805457 0.12756655 8
5.5251737 0.88399923 -1.4648064 4
7.3203778 1.1712227 0.86694884 5
5.6016865 0.89624083 -1.3441607 9
7.3317823 1.1730473 1.04352 15
8.3508568 1.3360939 -1.7976047 11
5.4214425 0.86740279 0.90203857 2
10.654646 1.7046883 -2.0329702 30
7.2913489 1.1665781 1.391233 45
11.887547 1.8700432 -1.6912316 7
10.439722 1.6422842 -0.98595506 9
11.88658 1.8698908 -0.27936515 6
5.5403547 0.87155926 0.13021256 4
5.5389371 0.87133628 -1.4678454 10
8.6703596 1.3639438 -2.0796447 4
7.3739576 1.1600055 1.0490869 3
8.2828217 1.3029797 -1.7822192 11
9.3019333 1.4632974 -1.7741276 4
7.3409748 1.1548167 1.4001203 32
8.1180668 1.2509416 -1.3494912 13
8.7869167 1.3540071 -1.2494962 6
10.086632 1.5542847 -0.95214248 9
11.587239 1.7855186 0 10
5.4620438 0.84166569 0.12830928 22
5.7340174 0.88357502 0.27055657 9
5.4060802 0.83304209 -1.7068225 8
7.6192474 1.1740768 0.539078 9
5.5473833 0.8548159 -1.4693649 6
13.397498 2.0644679 1.5852249 8
7.3579903 1.1338187 1.0463034 8
5.1991138 0.80114985 -1.1181492 3
8.1176786 1.2508818 -1.5475013 8
7.4280934 1.1446213 1.4160433 7
8.2210474 1.2433192 -1.3660276 15
10.183474 1.5401089 -0.96087432 4
11.406294 1.7250434 0 7
5.499958 0.83179224 0.12914486 7
8.2748079 1.2514497 0.39027599 10
5.4008341 0.81680107 -1.7044394 13
7.5869875 1.1474265 0.53656679 7
6.7558246 1.0217246 -1.9592304 9
6.7740989 1.0244883 -1.7935268 12
9.3001471 1.406518 1.0999472 3
8.4781799 1.2822069 -2.0316885 22
5.514482 0.83398873 0.78382301 2
8.4664288 1.2804297 -1.8200592 9
6.6189871 1.0010298 1.0998256 2
8.1308565 1.229679 -1.5493528 10
7.3865643 1.1171151 1.4075263 5
8.1112623 1.2035537 -1.3472216 12
11.043825 1.6386892 -0.78071445 5
7.5572019 1.1213419 -0.17737691 2
5.4483495 0.80842924 0 6
7.1398845 1.0594202 0.16758195 8
14.183697 2.1045852 1.0026796 7
6.7491436 1.0014418 -1.9564741 9
6.8037276 1.009541 -1.8006177 12
7.4058976 1.0988914 0.87554401 5
8.3345146 1.23668 -1.7909515 4
6.6588483 0.98804379 1.1059862 2
8.1653652 1.2115817 -1.5552777 10
7.8353157 1.1402571 -1.300855 5
8.3471766 1.2147472 -1.1854765 7
5.7518039 0.83704805 -0.6797139 7
10.683106 1.5546902 -0.75490457 5
5.5975137 0.81459445 0.13132669 6
6.4125185 0.93320042 -2.1896 8
5.4426913 0.79206347 0.25648835 4
11.346481 1.6512297 0.80178088 7
6.8563004 0.99778306 -1.8137869 20
20.41045 2.9702904 2.4119854 12
7.1833477 1.0453776 -1.7199723 7
7.5984983 1.1057936 1.0791483 22
10.624157 1.5461115 1.7638713 6
8.2290096 1.1975507 -1.5667572 2
7.4665961 1.0865982 1.4215978 11
10.067706 1.4364311 -1.6708142 24
12.918922 1.8432343 -1.8340232 16
10.41287 1.4856782 -1.2300359 2
10.679505 1.5237209 -0.75434649 7
7.1437111 1.019244 0.16753553 8
5.4115682 0.77210683 -1.8470751 7
9.9048204 1.4131911 0.46657965 1
6.6233072 0.94499421 -1.9184362 22
6.8322444 0.97480482 -1.8066958 10
7.5141792 1.0721012 0.88762367 4
6.9261479 0.98820269 -1.6577213 10
7.5133271 1.0719796 1.0666227 15
6.9275126 0.98839736 -1.4874004 8
8.1856251 1.1679012 -1.5578699 2
15.252463 2.176177 2.9028146 7
9.9859219 1.3945448 -1.6565475 8
10.307691 1.4394801 -1.4627094 39
14.194586 1.9822893 -1.6760546 14
12.382255 1.7291952 -0.58303821 5
5.481317 0.76547188 -0.12849496 16
6.7022429 0.93597549 -1.9404871 18
5.4024019 0.75445127 0.63789964 5
7.5733576 1.0576276 1.0746948 13
11.541762 1.6118196 1.9146434 8
9.0396872 1.2624022 -1.7196927 2
11.048506 1.5429358 2.1018467 6
6.6756539 0.91207528 -1.106959 5
11.448092 1.5641196 -1.6238718 6
14.619628 1.9974375 -1.7255349 14
5.5481391 0.75802624 -0.52242428 7
10.208007 1.3946904 -0.72044486 4
7.6410131 1.0439695 0 5
7.6208415 1.0412135 0.35869241 12
6.693562 0.91452199 -1.9371794 19
5.7183857 0.78128654 -1.5108981 4
7.5814233 1.0358279 0.89482504 4
7.4390073 1.0163701 -1.7789955 16
7.6785021 1.0490916 1.0891688 5
8.1679459 1.1159629 -1.7522799 16
8.9577112 1.2238662 -1.7033994 6
7.0590663 0.96445978 1.3423527 3
8.7536125 1.1710905 -1.4509788 5
8.8690443 1.1865335 -1.2575682 7
10.55145 1.4116119 -1.2449032 7
13.172925 1.7623224 -1.2399217 8
7.6735482 1.0265956 -0.17974441 6
7.6118379 1.0183398 0.35813341 11
6.62749 0.88665009 -1.9173336 9
5.7128744 0.76428944 -1.508872 2
9.3523769 1.2511954 1.1034317 6
7.4379582 0.99507749 -1.7780732 12
7.4792085 1.000596 1.0604991 5
8.2098103 1.0983387 -1.7605964 14
7.5193033 1.0059601 1.2463826 5
8.929925 1.1946782 -1.6974745 10
9.5279799 1.2746884 1.8111579 5
10.561534 1.3792032 -1.749929 16
8.8236322 1.1522551 -1.2506095 1
12.306931 1.6071301 -1.4514192 17
10.190845 1.3307959 -0.95883065 7
11.569094 1.5107778 -0.54409444 7
7.6846652 1.0035204 -0.17993009 7
12.954015 1.6916311 0 14
7.2048693 0.9408651 0.16869606 4
9.8971214 1.2924393 0.46546164 5
6.6035538 0.86234087 -1.9096158 6
7.8884764 1.0301355 0.74220663 7
6.8740282 0.89766145 -1.8147999 15
7.4545555 0.97347099 -1.781301 8
7.4764228 0.97632658 1.059664 11
8.2248583 1.0740629 -1.7630913 6
8.2144995 1.07271 -1.5608323 2
9.0466681 1.1813809 1.7189522 2
8.7604074 1.1191243 -1.4509788 6
5.5330234 0.70683247 -0.65230232 8
10.230078 1.3068717 -0.96217477 7
11.878454 1.5174483 -0.55844218 10
12.328461 1.5749358 -0.28855661 6
10.524471 1.3444798 0 8
6.497695 0.83006734 -2.0440166 4
6.7584987 0.86338449 -1.9537177 10
7.6740398 0.98034304 0.72177041 12
6.9379234 0.88630563 -1.831008 10
7.5822916 0.96862233 0.89389586 11
5.2295308 0.66806197 -1.2491702 4
7.3671403 0.94113719 1.0437983 21
8.6760883 1.1083527 -1.8591465 14
7.5310135 0.96207166 1.2473553 5
6.5954161 0.84255105 -1.2527392 3
9.0089922 1.1508805 1.7111758 4
8.9219275 1.1160287 -1.4772422 16
10.08748 1.2618256 -1.4287512 19
10.099927 1.2633827 -1.1903124 10
12.477374 1.5607735 -0.2919454 9
10.549785 1.3196546 0 8
10.646141 1.3317077 0.24909827 9
6.823688 0.85356349 -1.9719098 10
7.5738301 0.94739747 0.71210963 13
7.1456423 0.8938362 -1.8852037 7
7.5631185 0.94605762 0.89134049 5
7.4616446 0.93336439 -1.7817621 12
7.4481869 0.93168104 1.0549322 7
5.8060317 0.72626662 -1.2437278 3
15.117928 1.8910757 2.5031409 4
6.6054001 0.82625818 -1.2542204 6
9.7842607 1.2238965 1.8578162 2
9.04881 1.1030406 -1.4976695 4
5.7505016 0.70098025 -0.81416273 4
10.050606 1.2251586 -1.1840403 15
11.754124 1.4328157 -0.55219996 2
12.999773 1.584659 0 12
6.8416033 0.83398443 -1.97632 7
7.60642 0.92721486 0.71489644 13
7.4915857 0.91321665 -1.7882179 16
7.484499 0.91235274 1.059664 5
5.8510075 0.7132318 -1.252876 5
5.2267208 0.63713193 0.86507517 2
9.7451363 1.1879221 1.8496696 2
5.7466564 0.68321198 -0.81332767 6
10.634133 1.2642772 -1.2523369 10
11.025364 1.3107901 -0.25777912 8
12.772055 1.5184517 0 11
5.1265054 0.60948306 0.11986055 4
10.004595 1.1894323 0.4698405 12
5.7048759 0.67824477 0.53598654 13
7.1106229 0.84537202 -1.8745673 7
7.399116 0.87967056 0.87136257 49
7.0671787 0.84020698 -1.6863105 7
7.4360394 0.88406032 1.0524271 10
13.733863 1.6327997 2.2722814 4
11.493417 1.3664362 -2.1807215 5
9.6900682 1.1520386 1.8385603 4
10.609602 1.2332027 -1.5011212 13
5.4578123 0.6343866 -0.6425457 21
15.468236 1.7979439 -1.45283 3
7.8003087 0.90666568 -0.54912293 4
11.864902 1.3791119 -0.27732262 4
10.515206 1.2222307 0 8
10.710982 1.2449867 0.25035164 3
9.9183722 1.1528579 0.46564797 12
5.7125659 0.66399777 0.53654391 3
5.7329144 0.66636294 -1.5108981 2
7.4369111 0.86442631 0.87554401 76
7.0519562 0.81968123 -1.6821606 10
11.671939 1.356683 1.6514281 17
6.7099133 0.77992398 -1.4358382 2
13.726329 1.5954741 2.2703359 9
6.8876295 0.8005808 -1.3064332 1
9.7125731 1.128937 1.8422636 9
5.5281115 0.62496346 -0.78187454 4
5.4735956 0.61880034 -0.64417183 10
7.8576074 0.88831741 -0.73774779 11
5.4041095 0.61094481 -0.12626673 5
5.2803636 0.59695512 0 4
11.833411 1.3377895 0.27648702 10
9.9080486 1.1201236 0.4649958 7
5.6926832 0.64356863 -1.4997551 2
7.4336677 0.84039021 0.87484711 49
5.7897921 0.65454692 -1.380589 1
11.646623 1.3166728 1.6472529 8
6.7709789 0.76547199 -1.2838447 4
5.7808185 0.65353245 1.0961004 6
5.4432163 0.59997702 -0.76962727 21
7.8960447 0.87033939 -0.92897332 22
12.973908 1.4300455 -0.30304018 2
5.2939382 0.58352286 0 2
11.849026 1.3060557 0.27676556 10
9.2690926 1.0216832 0.65208352 6
7.6918111 0.84782779 0.72195619 16
7.3406777 0.80912417 -1.9333215 10
7.422164 0.818106 0.87322098 49
5.7625809 0.63517892 -1.3736722 3
8.1757669 0.90117168 -1.5497233 10
5.7376881 0.63243514 1.0875834 3
5.4509826 0.58350462 -0.77046233 13
7.8967652 0.84531534 -0.92874104 10
5.0966239 0.54557204 -0.47820774 11
10.964389 1.1736914 -0.25601509 6
9.8576832 1.0552232 0 1
11.169977 1.1956989 0.52387726 15
9.2405157 0.98915809 0.64985126 6
7.0845842 0.75837481 0.66473472 9
5.6569123 0.60554856 0.66531122 10
7.6512332 0.81903213 -1.8232628 12
5.1260505 0.54872203 0.72453523 3
7.3616786 0.78803658 1.394936 3
7.9600863 0.83102244 -1.1247971 21
10.761777 1.1235152 -1.2653457 10
5.139627 0.53657025 -0.48210916 8
17.758675 1.8539821 -0.41454482 8
11.909277 1.2433127 0 7
9.7364473 1.0164721 0.45651761 2
12.689879 1.3248066 0.89218533 8
7.0098739 0.73182154 -2.0209732 4
9.6771555 1.0102823 0.90774006 6
7.0219269 0.73307985 -1.8482291 2
4.926095 0.51427776 -1.1735468 4
14.168992 1.479224 2.0021443 8
8.3218489 0.86878997 -1.7784768 6
8.4799051 0.88529086 -1.6063797 10
8.0966492 0.81957179 -1.1437247 6
8.9252596 0.90344673 -1.0490732 5
5.2740297 0.53385621 -0.49455673 5
13.682377 1.3849792 -0.31928772 5
10.803865 1.093606 0.25211567 9
12.723753 1.287944 0.89427799 2
7.0503936 0.71366608 -2.0319986 15
9.9021788 1.002334 0.92854786 3
5.2493777 0.53136086 -1.3812335 5
4.9644742 0.50252187 -1.1823081 6
13.925469 1.3678597 -1.9665161 6
9.554328 0.9384948 -0.8956641 7
12.339273 1.2120521 -0.2878603 6
9.1793385 0.90166056 0.21414281 2
7.027607 0.69030207 -2.024832 16
7.7429504 0.7605682 0.72585768 10
5.3163996 0.52221495 -1.3984545 1
6.8461738 0.6724804 0.80445975 12
4.9814377 0.48931259 -1.1859969 6
9.0845699 0.89235175 1.2828977 3
7.2880788 0.71588749 1.3797535 5
8.4771957 0.81029087 -1.3991001 5
11.567084 1.1056372 -1.6330572 6
10.802812 1.0325843 -1.2690626 15
9.6479387 0.92219603 -0.90421015 7
17.555235 1.6780131 -0.40943846 4
9.5385256 0.9117378 0 3
9.2174921 0.8810519 0.2149784 2
12.119531 1.1584426 0.56775886 10
6.5207791 0.6232872 -2.0440166 13
9.2153931 0.88085127 0.64734012 6
6.7710266 0.64720702 -1.95041 6
7.7726669 0.74294859 0.72845864 7
6.7815256 0.64821059 -1.7833967 10
7.2415776 0.69218457 -1.7236612 11
8.2258987 0.78627068 -1.756438 17
9.8314238 0.9397344 1.8607786 6
6.7998037 0.62960154 -0.95973778 11
10.98187 1.0168239 -1.2897373 2
12.184585 1.1281846 0.57064706 6
6.5568194 0.60710341 -2.0547402 15
9.2398186 0.85552531 0.6488747 8
6.6752863 0.61807239 -1.9222951 5
7.6479335 0.70813084 0.71656841 4
7.0069003 0.64877689 -1.8421509 17
7.7299948 0.71572906 -1.839402 17
9.402976 0.87063229 1.3271548 19
5.6685724 0.52485955 -1.2100462 4
9.963335 0.92251652 1.8852187 8
8.1298742 0.72986406 -1.341061 5
10.689535 0.9596591 -1.5083581 9
9.6987085 0.87070704 -0.90848321 23
9.1890182 0.82494932 -0.43024457 4
10.838412 0.97302455 0 6
9.6326542 0.86477703 0.22454125 2
6.619339 0.59425491 -2.0738041 11
9.2362108 0.82918608 0.64845616 10
6.9239984 0.62160587 -1.9934095 15
7.3093047 0.65619695 -1.9211655 10
5.7238183 0.51385903 0.67204797 4
7.3094091 0.65620637 -1.7388781 18
7.85885 0.70553273 1.1089313 5
5.3933353 0.48418972 -1.1509992 16
5.416533 0.48627231 1.0246317 4
13.018322 1.1298023 -1.2191138 8
10.872193 0.94354939 0.25336906 9
9.2292414 0.80096489 0.43201473 4
6.617269 0.57428342 -2.0726125 11
9.2346554 0.80143476 0.64817721 8
6.9066586 0.59939826 -1.9878967 7
7.0066652 0.60807741 -1.841138 15
6.8652358 0.59580338 0.80585361 6
7.216321 0.6262725 -1.7162833 10
14.814182 1.2856572 2.0898235 9
5.4025435 0.46886277 -1.1526625 19
9.0756083 0.78763175 -1.7163601 2
7.3858018 0.64098096 1.3967874 11
8.3857937 0.70270109 -1.3825639 5
12.457483 1.0438949 -1.7569214 9
11.184801 0.93724835 0 9
7.0195003 0.58821034 0.16354328 8
6.5599651 0.54970282 -2.0541444 5
5.5330501 0.46365082 0.38826454 4
6.9352283 0.58114862 -1.9956145 6
10.703294 0.89689976 1.2560537 5
5.3757944 0.45047334 -1.2782207 15
14.853457 1.2446694 2.0948336 12
7.6613894 0.64199847 -1.634186 4
7.3289146 0.61413819 1.3856783 20
12.0349 0.97253013 -1.9837068 5
7.2962775 0.58960605 -1.0287676 5
7.0602264 0.57053095 -0.6608333 11
7.0911531 0.57303011 -0.3317672 5
11.213448 0.90614927 0 7
7.0072641 0.5662511 0.16321833 16
10.317094 0.83371568 0.72379315 9
6.9867454 0.56459302 -2.0099478 6
6.7864423 0.54840672 -1.7823836 5
9.8564835 0.79649419 1.1563964 3
5.3441305 0.4318547 -1.2703817 26
7.4071069 0.59856206 1.4001203 18
7.4156551 0.57971716 -1.2220646 5
12.490763 0.97646254 -1.7608182 5
7.0134249 0.54827291 -0.49192268 6
10.884925 0.85092658 -0.50915688 6
6.8970933 0.53917873 -0.16061872 4
11.191854 0.87492073 0 9
7.0186892 0.54868448 0.16345043 12
5.1546545 0.40296394 0.24111584 7
5.1887836 0.40563202 -1.3624928 10
7.7790942 0.60812891 0.91247994 4
5.3976283 0.42195839 -1.2828318 5
8.8331118 0.69052655 -1.8832643 15
7.3028393 0.57089782 1.3801239 27
12.379057 0.93079269 -1.7446741 7
13.642082 1.0257608 -1.2763354 15
7.0289464 0.52851295 -0.49289924 4
9.2916451 0.69864738 -0.43453023 5
6.9126191 0.51976621 -0.16094367 4
11.242265 0.84531629 0 9
6.9405327 0.52186501 0.16159357 14
5.1618042 0.3881208 0.24139534 7
7.6848412 0.57783031 0.71898365 4
5.3250194 0.40039313 -1.397948 35
11.746569 0.88323534 1.3775474 1
8.645546 0.65006655 -2.0542834 18
5.5577965 0.41789585 -1.1846809 3
7.386816 0.55542147 1.3956766 11
6.0725665 0.43848455 -1.0002836 5
6.9316545 0.50051707 -0.97671688 5
12.704126 0.91733259 -1.4895166 9
9.2115288 0.66514105 -0.21442135 6
6.9280906 0.50025976 0.16126862 12
5.5738425 0.40247294 0.39077577 5
5.7539673 0.4154793 0.53821594 4
5.36092 0.38709837 -1.407065 7
8.4125662 0.60745001 -1.9984878 18
7.0904632 0.51198423 -1.3393903 1
7.4158759 0.53548151 1.4008609 13
8.3003864 0.57751143 -1.3670002 5
11.842705 0.82397336 -1.6684073 5
10.586096 0.73654294 -1.2409542 10
6.8436651 0.4761579 -0.6400255 19
6.8964472 0.47983032 -0.48341236 4
5.1539259 0.35859188 -0.24092951 3
6.927382 0.48198265 0.16122219 14
5.5748768 0.38788015 0.39077577 4
7.017971 0.48828551 -1.8416445 10
5.6517305 0.39322734 0.66252363 1
7.7948146 0.54233557 -1.8513911 17
8.2903013 0.5768097 -1.7664179 6
7.4309769 0.517021 1.403453 13
5.2586198 0.34927776 -0.74067926 4
10.56259 0.70156765 -1.2379342 10
9.6606703 0.64166212 -0.90328127 4
6.883986 0.45723462 -0.48243576 4
9.4110146 0.62507999 -0.43984076 7
6.9188867 0.45955276 0.16099009 12
5.1370864 0.34120548 0.24009101 6
5.4944477 0.36494145 0.38505575 5
7.4585996 0.49540052 -1.7711564 7
8.528264 0.56644768 -1.8167326 8
8.4856749 0.5636189 -1.6023064 4
5.5322599 0.36745292 1.0446281 15
12.343237 0.78522587 -2.0320187 39
8.4813366 0.53954768 -1.1943837 6
10.588297 0.67358381 -1.2407218 7
12.983261 0.82594162 -1.2137262 5
6.879262 0.4376303 -0.48201725 4
5.2117896 0.33155259 -0.24353817 6
6.9161515 0.43997708 0.16089724 12
5.1380186 0.32685959 0.24009101 7
12.318956 0.78368127 0.86316663 7
7.4841599 0.47611144 -1.9632052 13
7.4560695 0.47432443 -1.7702342 11
7.3883095 0.47001383 1.0404582 3
8.3423862 0.53070825 -1.7768135 16
12.400354 0.78885943 2.0414217 8
5.1017437 0.32455194 -0.96316123 1
5.5332642 0.35200348 1.0446281 12
8.439065 0.51319838 -1.3890487 6
8.5045557 0.51718104 -1.1974454 6
5.6609144 0.34425285 -0.52911252 7
5.2386193 0.31857213 -0.24474934 8
6.9073753 0.42005292 0.16066514 14
5.1329293 0.31214491 0.23981151 6
5.6517329 0.34369451 0.39593774 5
7.3579993 0.44745636 -1.9297761 15
6.8882484 0.41888976 0.80701512 22
4.9398494 0.3004033 -1.1726246 3
11.633964 0.70748734 1.6380675 6
8.2383919 0.50099498 -1.754359 9
12.370991 0.75230753 2.0362339 8
6.0482163 0.36780554 -1.1416479 4
7.3253455 0.4454706 1.3827159 2
5.2231841 0.30116779 -0.85956299 4
5.0617652 0.2918604 -0.71256638 4
9.5386667 0.54999763 -0.8913911 4
10.953017 0.63154882 -0.76718169 5
6.8292236 0.39377168 -0.31900334 3
6.8507724 0.3950142 -0.15931891 3
6.9006763 0.39789164 0.16047946 14
5.4689631 0.31533933 0.25546354 15
5.6806707 0.32754636 0.39789096 9
7.214499 0.4159866 -1.8917882 7
7.1116452 0.41005605 0.83303285 63
4.9407687 0.28488374 -1.1726246 1
7.5353074 0.43448436 1.0607774 3
5.4939337 0.31677914 -1.1697114 11
12.94073 0.74615997 2.1296153 8
5.319418 0.30671659 -1.0038948 2
7.3561411 0.42415363 1.3882705 6
5.0269475 0.27577132 -0.82713896 6
9.583909 0.52575988 -0.89547831 7
6.9326229 0.38031402 -0.48550507 3
6.8458591 0.37555429 -0.15917964 4
9.0266037 0.49518687 0.42158005 2
10.032382 0.55036247 0.70258719 4
7.2337546 0.39683369 0.8472032 6
6.154098 0.33760521 -1.4603624 2
5.7370133 0.31472453 -1.2212733 4
5.2967043 0.29056981 -0.9994511 6
11.452971 0.62829399 2.1610954 5
4.9765453 0.2573286 -0.81870866 4
11.958425 0.61834955 -1.4003129 5
9.7763014 0.50551569 -0.45651761 20
5.8845506 0.30427998 0.13680443 3
9.0161438 0.46620926 0.42102104 3
11.468636 0.59302342 0.80303651 7
6.2206655 0.32165992 -1.7861302 5
12.269884 0.63445461 1.4367843 6
6.1201448 0.31646216 -1.4520624 9
6.0290728 0.311753 -1.2832311 3
8.8482924 0.45752996 -1.6693314 2
5.0816302 0.25031227 -0.83589345 4
7.1608586 0.35273144 -1.0076133 5
6.4172931 0.31610468 -1.8423603 5
11.754642 0.57901317 1.0979828 2
5.4572616 0.26881519 -1.4303641 5
7.3727579 0.36316922 0.86323202 5
8.6827755 0.42769843 -2.0598166 13
8.2150211 0.37879229 -1.3511125 5
10.557299 0.48679402 0.49285272 3
6.769702 0.31214905 -1.9432434 7
6.857388 0.31619221 -1.7970722 10
8.5538244 0.3944144 -2.0289216 18
5.2568488 0.24239181 -1.118565 11
6.784152 0.29383039 -0.63352305 7
6.7944555 0.29427665 -1.7803576 10
9.0654001 0.36727586 -1.275104 6
11.777154 0.47713995 -1.0996548 7
4.9157047 0.19915499 -1.410712 7
4.8794351 0.19768557 -1.2784133 6
4.9410291 0.20018099 -1.1717023 4
8.9019451 0.36065364 -1.6785889 8
7.2239952 0.27120429 -1.187695 7
9.5144157 0.35719159 -1.1134206 7
5.144022 0.19311763 -0.48025134 2
5.3451734 0.20066929 -0.37403423 4
4.9066682 0.18420686 -1.4079556 4
7.3857369 0.27727643 -1.934841 5
5.2974896 0.19887915 -1.2560871 7
8.8833361 0.33349952 -1.674886 8
8.8539944 0.30454803 -1.4555181 9
6.7765479 0.23309073 -0.63259417 7
7.0188274 0.24142435 -2.0138066 15
5.3523641 0.18410355 -1.402 1
5.3078132 0.18257114 -1.2583926 12
6.0746169 0.20894665 -1.2919633 3
8.8882675 0.30572689 -1.6756265 8
15.875136 0.54605198 2.9927988 3
6.7652297 0.21378669 -0.63147944 4
5.3150468 0.16795973 -1.5248259 4
5.3045111 0.1676268 -1.3893374 17
5.3121929 0.16786955 -1.2593149 24
5.2441664 0.16571985 -1.1152384 6
5.0269995 0.15885721 -0.94760847 7
10.541831 0.30366683 0.98391151 3
5.3088269 0.15292549 -1.3903505 29
5.3068051 0.15286724 -1.2579315 12
5.2160115 0.13385411 -1.4961597 63
7.3500295 0.17064844 0.34285405 4
11.309908 0.26258644 2.1314709 4
5.5194006 0.1107966 -0.12817001 18
6.6394458 0.13328043 0.30968666 7
7.1017241 0.1425602 0.66269112 3
7.2570748 0.14567873 0.84882939 4
9.0744801 0.18216136 1.7100648 5
5.6836367 0.097224966 -0.13197659 11
9.4660435 0.16192725 1.7837554 5
9.406888 0.13628349 1.5456572 6
7.3515368 0.083404817 -0.34285405 2
12.633782 0.14333306 -0.29333806 4
5.3618274 0.060831122 0.25005984 70
5.3815026 0.061054345 0.8842054 3
7.1546783 0.059942253 -0.66752148 9
5.6856213 0.047634423 -0.2651529 3
5.1801887 0.043399878 0.24158168 4
5.4033685 0.045269694 0.88777202 5
11.816949 0.06806659 -0.82633519 5
5.6677465 0.032646682 -0.26431438 7
7.4153447 0.04271299 0.86718118 4
5.3876805 0.031033479 0.88517803 3
7.5058141 0.043234102 1.4141918 2
6.2511792 0.018548446 0.29151911 33
5.589046 0.016583771 0.91825062 3
6.0613279 0.01798512 1.1420182 5
6.2132478 -0.0010844163 0.28974894 7
9.1000023 -0.0015882499 1.4950755 8
6.0318737 -0.0010527605 1.1364636 2
13.350961 -0.039613217 1.5612978 5
7.7836156 -0.02309452 1.2788068 4
5.7488279 -0.017057166 1.0831399 5
5.1844039 -0.030765234 0.85178125 4
7.509737 -0.044564199 1.4149324 5
6.8761272 -0.10081651 -1.9719098 6
6.2564745 -0.091731273 -1.6380304 4
8.0051041 -0.13972962 -1.8970419 8
6.7108865 -0.11713896 -1.264589 6
10.690941 -0.21647643 -1.2504785 5
8.7521858 -0.17721936 -1.6493349 10
6.5444489 -0.1530856 -1.0755076 7
8.9634361 -0.20966977 -1.2600734 6
9.1332464 -0.21364193 -1.0683542 5
9.1311989 -0.21359402 -0.63869023 16
9.0750265 -0.23763795 -1.0616174 10
9.1252317 -0.23895262 -0.85163331 13
5.0724187 -0.13282596 -1.7145466 16
9.0448923 -0.26212618 -1.4866452 6
9.0729885 -0.26294041 -1.2756608 21
5.9594984 -0.17270969 0 27
5.0607967 -0.1466648 -0.95390368 10
9.0776587 -0.28844878 -1.4921573 6
5.0260444 -0.15970598 -0.70672107 19
5.0116959 -0.15925005 -0.46780384 11
5.9145646 -0.18793932 -0.41379538 25
5.0454535 -0.16032273 0 3
8.4898319 -0.26977018 0.99332076 9
5.0255485 -0.17461783 -0.70672107 19
5.0350838 -0.17494914 -0.47003326 11
5.9439502 -0.20652863 -0.27735776 4
5.3553247 -0.18607624 -0.12440987 6
5.5332489 -0.1922584 -1.043147 67
5.4368491 -0.20506153 -0.38045183 11
10.193667 -0.38447434 -0.47571 6
10.321877 -0.38931006 -0.23981395 7
7.28514 -0.27477348 0.85254616 15
5.7231641 -0.21586047 -1.0790664 35
14.033298 -0.57344866 -1.3103337 18
5.3776636 -0.21974976 -0.25099152 5
7.1401153 -0.29176959 -0.16591077 13
7.1540298 -0.29233819 0 5
5.4955292 -0.22456615 0.51313508 4
8.4513073 -0.3453494 0.98913944 4
5.7388935 -0.23451085 -1.2208575 4
7.9112482 -0.32328072 1.300855 4
5.7204938 -0.23375899 -1.0786961 4
5.804666 -0.25140718 -0.9545657 4
5.0567675 -0.21901475 -0.59190398 11
14.240751 -0.61678427 -1.3298411 31
10.141705 -0.43924958 -0.70984191 4
5.3950739 -0.23366721 -0.25183001 1
7.1353865 -0.30904227 -0.16581793 15
5.5287852 -0.23945841 0.51629341 4
