# .PCD v0.7 - Point Cloud Data file format
VERSION 0.7
FIELDS x y z intensity
SIZE 4 4 4 4
TYPE F F F F
COUNT 1 1 1 1
WIDTH 1447
HEIGHT 1
VIEWPOINT 0 0 0 1 0 0 0
POINTS 1447
DATA ascii
-5.0259886 2.4448261 0.78549302 3
-4.7278352 2.2997935 0.86377817 5
-5.4118066 2.6325023 1.1338714 5
-4.554451 2.2312014 -0.35464191 2
-5.7027349 2.7937398 -0.14743498 2
-5.6180615 2.7522585 0 5
-5.6668239 2.7761469 0.14650655 3
-5.0773187 2.4873517 0.26366222 4
-4.7210846 2.3128343 0.49046946 3
-5.2910442 2.5920546 0.68900597 3
-4.9035349 2.402216 0.76740056 3
-5.3603096 2.6259873 1.1246139 3
-5.8808885 2.9026845 -0.15226282 3
-5.6600866 2.7937014 0 5
-5.2766623 2.6044512 0.13661875 6
-5.469419 2.6995916 0.28443843 4
-5.16504 2.5493565 0.40277389 4
-4.621346 2.2810006 0.48080868 3
-5.1426077 2.5382845 0.67065418 2
-4.7880507 2.3632827 0.7504214 3
-4.8272905 2.3826506 1.0142633 4
-5.6650639 2.8158596 -0.14687791 2
-5.0827379 2.5264106 0 4
-5.3248734 2.6467657 0.13805783 4
-5.4547024 2.711298 0.28406578 4
-5.1543274 2.5619943 0.40249488 4
-4.6113915 2.2921245 0.48043716 3
-5.0767975 2.5234578 0.66298819 4
-4.7654705 2.3687103 0.74791628 3
-4.817565 2.3946044 0.88388109 7
-4.771338 2.3716271 1.0038948 6
-4.5062642 2.2565675 -0.35240969 3
-5.9445248 2.9767942 -0.15435179 4
-4.8820829 2.4447634 0 4
-5.451993 2.7301528 0.28434527 4
-5.1431351 2.5754886 0.40221584 4
-4.7559204 2.3815858 0.49622878 3
-4.9449544 2.4762471 0.64672714 4
-5.2950063 2.65154 0.83225524 4
-4.8739667 2.4406991 0.89555377 13
-4.7625237 2.3848925 1.0035244 8
-4.9453173 2.4926457 0 4
-6.9630265 3.509655 0.36363026 3
-5.2005124 2.6212745 0.4072383 4
-4.9274912 2.4836607 0.51480716 4
-4.7646146 2.4015639 0.62396157 4
-5.0475187 2.5441594 0.7944001 4
-4.9627256 2.50142 0.91306287 10
-4.765038 2.4017773 1.005376 9
-5.7187119 2.9050331 -0.14892048 2
-5.0658474 2.5733862 0 4
-5.1531186 2.6177189 0.40416899 4
-4.8752794 2.4765804 0.51016253 4
-4.6614099 2.3679373 0.61141735 4
-4.9335556 2.5061839 0.77769935 4
-4.9478045 2.513422 0.91176581 5
-4.7767444 2.4265258 1.0094492 8
-6.5371289 3.3423386 -0.34238821 1
-4.8507462 2.4801157 0 4
-5.0429277 2.5783756 0.26412806 8
-5.181776 2.6493664 0.40695927 4
-4.7677155 2.4376633 0.49957287 3
-4.6976428 2.4018362 0.61699253 4
-4.983407 2.5479431 0.78660643 4
-4.8568625 2.483243 0.89620233 7
-4.9939556 2.573159 0.26198521 5
-6.2215915 3.2057042 0.48941141 3
-4.9512143 2.5511363 0.51963753 4
-4.9690771 2.5603402 0.65369618 4
-5.3239708 2.7432008 0.84171897 5
-4.8560548 2.5021048 0.89749926 12
-4.7557015 2.4503973 1.0079681 7
-5.8351169 3.0285132 -0.1526342 1
-5.4393654 2.8231122 0.14228217 3
-5.188447 2.6928818 0.27260622 10
-7.7615247 4.028348 0.6114853 8
-4.7974873 2.4899681 0.63209218 4
-5.2507672 2.7252269 0.83142018 3
-4.7557716 2.4683168 0.88031447 10
-4.7257318 2.4527259 1.0031542 12
-6.5431285 3.4177585 -0.34425154 2
-5.4213214 2.8317902 0.14200366 4
-5.1548162 2.6925831 0.27120873 8
-12.976609 6.7782431 1.023746 7
-4.8714523 2.5445697 0.77241075 4
-4.7440448 2.4780195 0.87934172 7
-4.769814 2.4914799 1.013893 13
-6.3449626 3.3396602 -0.33437589 3
-4.7537169 2.5021107 0 4
-5.3388772 2.8101089 0.42188716 4
-4.7723002 2.5118918 0.75793672 4
-4.8078389 2.5305977 0.89263558 25
-4.8054442 2.5293374 1.0231506 14
-5.7641931 3.0532699 -0.3041898 3
-5.2671051 2.7899644 0.13838278 6
-5.0052447 2.651258 0.93057185 17
-4.9325409 2.612747 1.051664 23
-4.810318 2.5663135 1.0272239 32
-5.8032317 3.1181884 -0.46067175 2
-5.3138633 2.8552413 0.14005394 3
-4.6278191 2.4866164 0.98982316 15
-4.5932503 2.4856336 0.73399895 4
-5.2279158 2.8290823 0.97661406 7
-5.1476288 2.785635 1.1027659 11
-4.7256141 2.5743492 0.62930453 4
-4.5671597 2.488029 0.73093718 3
-5.0678678 2.7803283 0.13420482 6
-5.1899247 2.847291 0.69225824 4
-5.1865935 2.8454635 0.83142018 4
-4.7547464 2.6085439 0.89101446 17
-5.1786289 2.8599341 0.83142018 6
-4.7198029 2.6065443 0.88582659 12
-5.3074088 2.9504256 -0.14098237 4
-5.2966032 2.9444184 0 5
-5.5310998 3.0747769 0.14692435 7
-5.2848706 2.9378963 0.84979105 21
-4.6952562 2.6101255 0.88258415 8
-5.3506694 2.9952908 0 5
-5.1689835 2.8935835 0.83253354 6
-5.0832267 2.8455772 1.0975817 9
-5.0593543 2.8519623 0.40612221 5
-4.6126294 2.600143 0.49399936 4
-4.9422059 2.7859256 0.66345286 12
-5.0568571 2.8505547 0.81583279 9
-5.2900033 2.9819794 0.99768972 6
-5.018261 2.8287981 1.0853617 9
-5.434865 3.0836697 -0.43695456 6
-5.5447416 3.1460121 -0.29729545 1
-5.7108016 3.2402325 0 5
-5.0687232 2.8759258 0.40751734 5
-4.787549 2.7163913 0.64370722 64
-4.9799733 2.8255703 0.80469888 6
-5.3228512 3.0201144 1.0054715 7
-5.0530772 2.8670485 1.0946193 9
-4.993104 2.8514824 0.40207633 5
-4.8090019 2.7463446 0.51666498 7
-4.7385449 2.7061079 0.63813198 13
-5.0270987 2.8708961 0.81360602 7
-4.7248602 2.6982927 0.89393264 15
-4.9784889 2.8431361 1.0801773 15
-4.9794331 2.8633001 0.40165779 5
-4.7766643 2.7467031 0.51406401 8
-4.7494378 2.7310472 0.64068729 9
-5.0391617 2.8976457 0.81694621 6
-4.6483994 2.6729474 0.88096297 12
-4.9376597 2.8392792 1.0731417 12
-4.9304876 2.8546553 0.5315277 8
-4.8410225 2.8028564 0.6541608 9
-5.0442538 2.9205234 0.81917292 4
-4.6728988 2.7055163 0.88712353 8
-4.9564276 2.869674 1.0790664 12
-5.6698165 3.3052111 -0.30605313 2
-4.9701672 2.8973515 0.53672963 6
-5.0369072 2.9362576 0.68180466 9
-4.7688556 2.7799971 0.90690225 41
-5.1482525 3.0011661 1.1227623 10
-4.9448814 2.9011433 0.53487182 4
-5.0406814 2.9573488 0.68343073 4
-4.6112795 2.7054203 0.87836903 15
-4.9635506 2.9120965 1.0842508 23
-4.9691133 2.9340441 0.67483562 5
-4.7889419 2.8276608 0.91371131 6
-4.923243 2.9069595 1.077215 16
-5.1442661 3.0593004 0.69992417 4
-4.924222 2.9284401 1.0794368 16
-4.9261432 2.9482358 1.0816586 13
-4.8067708 2.8950551 1.0572184 13
-5.4633074 3.333508 0 2
-4.9587302 3.0256338 0.81638944 4
-8.587388 5.2747364 0 2
-4.996984 3.0693586 0.82418317 4
-4.9642024 3.0492227 0.95715958 0
-5.0041604 3.0954595 0.82696664 4
-4.9529209 3.0637639 0.95683539 0
-5.1101089 3.1782875 -0.56143892 2
-4.9018478 3.0487573 0.94840509 3
-6.2782106 4.0073652 1.2236857 3
-4.8756576 3.1121194 1.0898052 4
-5.391459 3.4652424 -0.2988793 1
-5.3872232 3.4625201 0 5
-5.4083738 3.4961553 0 3
-4.6871219 3.0496702 0.26077405 4
-4.8885684 3.1807411 0.68203694 4
-13.523191 8.7988482 2.6506705 5
-7.5630651 4.9547882 -0.20991845 1
-4.690887 3.0731394 0.26151937 4
-10.608192 6.9497414 2.0835729 8
-10.591179 6.9756417 2.0835729 4
-5.3578043 3.5529797 -0.90351182 1
-4.9707484 3.2963071 0.13847561 3
-10.537963 6.9881558 2.0774126 6
-5.0892525 3.4159689 0.57184279 2
-5.7612448 3.9182789 1.3127284 2
-4.9058537 3.355336 0.2771714 4
-10.512346 7.1898713 2.3995714 2
-10.493847 7.220314 2.3999417 5
-10.237501 7.3998284 1.7752922 9
-10.121135 7.3157167 2.3529129 2
-10.202994 7.4237952 1.7733438 7
-6.8865318 5.0994844 -0.59920812 5
-5.0874376 3.8142049 -0.44462776 1
-7.1109009 5.4268665 -0.8345412 4
-7.0473871 5.4115558 -0.82896775 4
-9.69804 7.5361323 2.3140309 2
-7.4678679 5.8387356 -0.22008477 3
-6.5923939 5.3080025 -0.19650261 2
-6.3451486 5.2323966 -0.76728743 2
-6.0889802 5.0515776 -0.73811942 4
-8.8009396 7.5167112 0 4
-9.0805807 8.1275339 2.0021884 4
-9.0637121 8.1124353 2.2918127 5
-8.5735607 7.7169566 2.1733155 5
-8.5680046 7.7553763 2.1773887 5
-8.6694012 7.896852 0.27226263 10
-8.5261612 7.7663765 2.1729453 6
-8.8272896 8.0830536 0.55816269 4
-9.824707 9.1584797 0.62636083 5
-8.3855162 7.8168831 1.3406115 3
-8.6840687 8.1406326 0.55508816 1
-8.6787729 8.1841793 0.55629933 5
-8.3504725 7.874589 1.3422376 6
-8.7807903 8.3705988 1.4186647 6
-9.440527 9.056304 0.9147864 8
-8.7243433 8.3692684 1.4137864 6
-8.2673979 7.9309201 1.8822193 10
-8.2978182 8.0103092 1.8948648 17
-8.2045603 7.9591055 1.8780042 6
-8.5254984 8.3225899 1.111545 2
-8.4195919 8.2192039 1.9331253 8
-5.1951618 5.0999274 0.16902103 8
-8.4246464 8.2702103 1.3805673 6
-8.4233646 8.2689524 1.9392858 8
-8.1881313 8.0380316 2.1618359 2
-5.2710562 5.2052317 0 5
-5.2226877 5.1574669 0.17041367 8
-5.4828277 5.4143581 0.35934457 4
-8.2776365 8.1742659 1.0853496 12
-8.3915901 8.2867956 1.3791735 6
-5.1974149 5.1630573 0 18
-5.2541738 5.2194409 0.17194559 8
-5.4809132 5.4446816 0.36027625 8
-8.3015518 8.2466745 0.81824344 9
-8.2321568 8.1777372 1.0825627 10
-5.1962194 5.1925931 0 18
-5.1764336 5.1728206 0.16990303 8
-5.4859314 5.4821029 0.36167377 8
-8.2474098 8.2416534 0.8153137 11
-8.3008223 8.2950287 1.0948244 8
-8.2614803 8.2557144 1.9188585 4
-5.0007987 5.023541 -0.33055604 7
-5.2489257 5.2727966 0 13
-5.4800186 5.5049405 0.36223277 6
-8.3212261 8.3590698 1.1003979 10
-8.7357302 8.7754583 1.7402205 4
-10.074939 10.120757 2.3462083 6
-5.1207147 5.1746197 0 10
-5.0644851 5.1177983 0.16716415 6
-5.2627082 5.3181081 0.34890988 5
-8.2683744 8.3554144 1.0966823 6
-8.1614428 8.2473574 1.3568724 6
-8.6887589 8.7802238 1.7360455 9
-8.7302599 8.8221626 2.0391521 12
-5.1104522 5.1931758 0 13
-5.2408299 5.325664 0.34844407 4
-8.1737738 8.3060837 1.0872073 7
-8.1369848 8.2686996 1.3566402 7
-8.4141541 8.5503559 1.685943 13
-8.690362 8.8310337 2.0355854 12
-7.9349871 8.0634317 2.1314709 2
-5.2283516 5.346478 0 15
-5.1724229 5.2892861 0.1717599 12
-8.1993551 8.3846064 0.82005709 7
-8.1977615 8.3829775 1.0938956 7
-8.0956907 8.2786007 1.354085 6
-8.4523325 8.6433001 1.6990253 11
-8.7232876 8.9203768 2.0498521 12
-8.5334816 8.7262821 2.2995892 9
-5.3444691 5.4958358 0 5
-5.0865417 5.2306037 0.16939239 8
-8.1701555 8.4015522 1.0933381 10
-8.5731449 8.8159552 1.7282517 9
-8.6034079 8.8470755 2.0274794 8
-8.494009 8.7345772 2.2955158 16
-5.3017263 5.4843493 0 5
-8.4587708 8.7501411 0.85102898 15
-8.0787544 8.3570356 1.0844206 12
-8.479497 8.7715816 1.7146127 9
-8.4632683 8.7547941 2.0005672 10
-8.8095617 9.1130161 2.3880918 12
-4.3296361 4.5023022 -0.14502105 4
-8.0334044 8.353776 0.81043077 11
-8.0292435 8.3494492 1.0807049 11
-8.0714912 8.3933821 1.361751 4
-8.3686447 8.7023859 1.6967986 15
-8.4704161 8.8082161 2.0077007 12
-9.0322561 9.3924618 2.455117 15
-4.5540552 4.7622175 -0.92605788 3
-4.2852631 4.4811387 -0.14395335 6
-5.147572 5.382863 0 5
-8.0541687 8.4223185 0.81489509 19
-7.9301996 8.2926817 1.0704867 7
-8.3360977 8.7171335 1.6951284 18
-8.3816786 8.7647982 1.9924613 12
-8.8022375 9.2045803 2.3995714 12
-4.3014665 4.5264654 -0.14497463 5
-5.1719685 5.4425006 0 5
-7.9410863 8.3564644 0.80610585 23
-7.8547268 8.2655869 1.0637985 7
-8.1050158 8.5289679 1.3759212 54
-8.3486652 8.7853632 1.9911643 10
-8.8193111 9.2806263 2.4121616 16
-8.017642 8.4873142 0.81642979 19
-7.8807635 8.3424177 1.0706726 10
-8.7235374 9.234561 1.4855676 22
-8.6918612 9.2010288 2.3847592 15
-8.4572992 8.9998112 0 10
-5.34549 5.6883879 0.1812299 7
-8.235857 8.764164 0.84098405 7
-7.9212198 8.4293432 1.3526912 9
-8.588685 9.1396255 2.0605519 29
-8.4941168 9.038991 2.3369899 13
-8.2779684 8.8646145 0.28159338 10
-8.5107841 9.1139288 1.1633787 6
-7.9923172 8.5587196 1.3694168 6
-8.5505028 9.1564636 2.0582824 14
-8.5354347 9.1403265 2.3562458 17
-5.8624091 6.3109136 -0.19998422 1
-7.1021156 7.6454635 0.2422743 6
-8.2004004 8.8277731 0.56188935 3
-8.5926046 9.2499828 1.1778698 6
-7.8914657 8.495203 1.3559433 9
-8.4875469 9.1368876 2.0488791 21
-8.6666393 9.3296814 2.3992009 11
-7.0807581 7.6679702 0.24232072 6
-8.4879713 9.191884 0.87488574 5
-8.5354033 9.2432499 1.1737826 7
-7.7826724 8.4280949 1.3415406 9
-8.1746321 8.85256 1.6934583 9
-8.5621567 9.2722225 2.0735216 19
-8.5242519 9.2311745 2.3673549 4
-8.3744745 9.1231384 0 5
-7.709394 8.3986006 1.0636128 3
-7.9389782 8.6487093 1.3729013 27
-8.3077288 9.0504265 2.0184007 23
-8.5699244 9.3360615 2.3877215 5
-6.0084333 6.5846891 0 6
-8.160552 8.9432125 0.56459117 6
-8.1804504 8.9650192 0.84865725 12
-7.6857829 8.4229088 1.0637985 6
-8.5024223 9.3178701 1.7727871 16
-3.4190307 3.7680204 0 4
-5.0277381 5.5409331 0.1737096 6
-8.1610546 8.9940758 0.56636137 6
-8.0990772 8.9257717 0.84279776 10
-7.8116131 8.6089659 1.3594278 45
-8.1968851 9.0335636 1.7143344 31
-8.6029253 9.4810495 2.1033518 14
-3.4078355 3.7781484 0 3
-8.0820541 8.9602919 0.28015432 10
-8.1313553 9.0149498 0.84893632 10
-7.7278399 8.5675869 1.0764319 31
-7.7088666 8.5465517 1.3459543 6
-8.4260645 9.3416834 1.7680552 28
-8.0024004 8.8719826 1.9629554 8
-8.1616602 9.0485487 2.295886 2
-5.364213 5.9806128 -0.18652196 4
-3.4052837 3.7965837 0 4
-8.0396442 8.9634771 0.27955085 10
-8.5413179 9.5227976 0.59654742 3
-8.2886515 9.2410984 0.86804956 5
-7.6560173 8.5357676 1.0697436 5
-7.6372199 8.5148106 1.3375915 9
-8.0442152 8.9685736 1.6931801 9
-9.2934055 10.419697 0 3
-8.0598335 9.0366249 0.28112918 7
-8.8896313 9.9669886 0.93389964 3
-8.0165443 8.9880886 1.123621 15
-7.6173801 8.5405502 1.3382884 6
-7.9584999 8.9230108 1.6803762 9
-8.4427109 9.4659052 2.0838974 17
-5.3446579 6.0304232 0 4
-8.2461405 9.3041906 0.57977742 3
-8.3145065 9.3813286 1.1695095 15
-8.8105793 9.9410515 1.5533996 3
-7.9803452 9.0042915 1.6909533 9
-8.4888525 9.5780439 2.1027031 10
-10.159039 11.46253 2.8857806 3
-5.3264742 6.0438247 0 4
-7.7350554 8.7767849 0.27161273 7
-9.5888348 10.880224 1.0141196 7
-8.3514757 9.476222 1.1784272 10
-7.9422011 9.0118284 1.4047266 6
-7.9446931 9.0146561 1.6887265 11
-8.4451084 9.5824652 2.0984881 8
-9.9827452 11.327186 2.844677 6
-5.310895 6.0601788 0 4
-10.055913 11.474644 0.71151537 12
-9.5991793 10.953472 1.0184445 14
-8.3289194 9.5039988 1.1789845 6
-7.9418812 9.062356 1.4091403 11
-7.928627 9.0472317 1.690675 9
-8.4417305 9.6327257 2.1043243 12
-8.5002556 9.6995077 2.4299362 8
-4.3886313 5.0361013 0 1
-9.5174332 10.921574 1.0130035 14
-7.8640723 9.0242863 1.1167469 5
-7.8408489 8.9976368 1.3956668 17
-7.9202466 9.088748 1.6942935 11
-8.5172281 9.7738047 2.1299396 12
-8.2226353 9.4357491 2.3580973 5
-3.4272997 3.9565823 -0.12153172 3
-4.4117646 5.0930796 0.15644076 5
-7.8255272 9.0340338 1.1150749 5
-7.7607918 8.9593019 1.3861426 7
-7.9165859 9.1391554 1.6993037 13
-9.9612513 11.499581 2.4995744 11
-7.8484416 9.0604877 2.2584856 5
-4.1226597 4.7879601 -0.14669223 4
-9.183219 10.665175 0 9
-7.655623 8.8910608 0.27240193 10
-9.3740015 10.886745 0.66996294 7
-9.3951759 10.911338 1.0068649 14
-10.140113 11.77649 1.4498575 17
-7.7575059 9.0093851 1.3903239 10
-10.360293 12.032202 2.2315016 16
-9.9953375 11.60835 2.5167592 2
-7.8574319 9.1254368 2.2688539 8
-4.1071334 4.7986536 -0.14664581 1
-4.8573213 5.6751509 0 2
-9.2452755 10.801908 0.33010396 4
-9.3923178 10.973707 0.67359644 7
-9.417243 11.00283 1.0127245 3
-10.323956 12.062205 1.4812549 18
-7.7178202 9.0172739 1.388001 6
-10.166141 11.877818 2.1972651 21
-10.173871 11.886851 2.5705831 9
-10.143501 11.851368 2.9391046 7
-4.8362727 5.6825976 0 5
-7.5848508 8.9121637 0.27170557 10
-9.3681183 11.007494 0.67406225 11
-9.3994188 11.044272 1.0141196 3
-10.030821 11.786166 1.4439124 15
-10.062841 11.823791 1.8156679 40
-10.19327 11.977043 2.2103474 25
-10.168784 11.948273 2.5777164 4
-7.7576141 9.115159 2.2551527 5
-7.5467501 8.9208918 0.2712878 10
-9.2463827 10.930001 0.66763371 28
-10.056251 11.887333 1.4526442 13
-10.401056 12.294923 1.8832675 10
-10.08989 11.927098 2.195595 12
-7.7229156 9.1291351 2.2529309 5
-3.3853991 4.023138 0 3
-9.1405592 10.862451 0.66204375 13
-9.3363037 11.09507 1.01398 7
-9.9749041 11.853969 1.8117187 17
-10.010176 11.895885 2.1850178 9
-9.6749458 11.497504 2.4687715 9
-9.9185877 11.787045 2.9024444 6
-4.6723189 5.5880313 0 3
-9.1512384 10.944759 0.66530454 24
-9.4357748 11.285061 1.0286289 3
-9.3949261 11.236207 1.3664405 2
-9.974021 11.928797 2.1852963 9
-9.5982637 11.479397 2.4583957 9
-9.8525095 11.78347 2.8939276 6
-9.3965282 11.302107 0.34124514 10
-9.1359673 10.988705 0.66642255 22
-9.6822844 11.645812 1.0590428 11
-9.3100433 11.198083 1.3586376 9
-9.4510098 11.367637 1.7287871 2
-9.800128 11.787554 2.1543996 12
-9.5926676 11.538021 2.4652047 9
-9.8735962 11.875922 2.9098506 10
-4.6276388 5.6018147 -0.16869606 3
-5.2987356 6.414186 0.19316025 5
-9.640564 11.670024 1.0584848 15
-9.2824249 11.236491 1.3597523 9
-9.403861 11.383492 1.7266964 6
-9.8235912 11.891581 2.1677604 12
-9.664464 11.698955 2.4930894 7
-9.8662777 11.943253 2.9187379 6
-9.476512 11.536895 0.34663004 21
-9.1859932 11.183211 0.67490077 20
-9.66366 11.764732 1.0646234 15
-9.2901955 11.310069 1.3655115 9
-9.3821259 11.421987 1.7285548 4
-9.7450914 11.863869 2.1577399 15
-9.6330118 11.727421 2.4934137 9
-4.6506567 5.6941457 0 3
-9.3076458 11.396044 0.68617392 16
-9.5184479 11.654145 1.0522066 15
-9.6339588 11.795574 1.4208752 7
-9.8289509 12.034317 1.8170617 10
-9.145647 11.197697 2.0319273 11
-9.616457 11.774145 2.4976289 9
-9.5160484 11.717853 1.055555 15
-9.0226488 11.110291 1.6737317 6
-9.1405573 11.255482 2.0377727 5
-9.1326828 11.314217 0.6780684 18
-9.3734713 11.612521 1.0435569 15
-9.5883751 11.878759 1.4242193 12
-9.0208378 11.175654 1.6795392 8
-9.1046352 11.279469 2.0372159 11
-9.3389931 11.569807 2.4428322 11
-9.3303652 11.629547 0.69530427 8
-9.4163857 11.736764 1.0522066 15
-9.6315975 12.00501 1.4359237 10
-9.0013151 11.219413 1.6820945 8
-9.3305607 11.62979 2.4496412 7
-9.3179884 11.61412 2.8054247 4
-5.9376297 7.4432693 0.22105962 5
-9.4918127 11.898707 1.0643443 15
-9.6141758 12.052099 1.4383389 10
-8.8832321 11.135806 1.6658335 8
-9.0308733 11.320885 2.0352676 28
-9.3497353 11.720602 2.4632595 9
-9.2610035 11.60937 2.7980187 3
-9.5263081 12.010592 0.35591435 11
-9.2490225 11.660996 1.0407666 15
-9.0557976 11.417382 1.3595665 9
-8.979248 11.32087 1.6897604 13
-9.064455 11.428297 2.05002 17
-9.11584 11.493082 2.4100838 9
-9.4204645 11.954086 0.35336116 16
-9.2347078 11.71837 0.69577014 6
-8.9468422 11.353084 1.0107713 3
-8.9200497 11.319086 1.3445181 8
-8.8797054 11.267891 1.6776807 8
-9.0738678 11.514273 2.0603187 23
-9.068697 11.507711 2.4071655 11
-8.7341681 11.143092 0.3287113 9
-8.7484713 11.161342 0.99165803 10
-8.8449335 11.284409 1.337644 8
-9.0375843 11.530192 2.0589271 11
-8.9715796 11.445983 2.3893323 11
-8.8350029 11.340889 0.33377126 25
-8.6895657 11.154201 0.98872828 10
-8.8089628 11.307464 1.3372724 8
-8.8032055 11.300073 1.6751255 12
-8.9850731 11.533525 2.0547519 17
-8.9266605 11.458543 2.3864141 4
-9.0008297 11.624737 0.68561494 26
-8.7558641 11.308359 1.3342998 8
-8.8486853 11.428239 1.6902251 13
-9.0223484 11.652528 2.0711744 48
-8.8974524 11.491222 2.387711 9
-9.7572651 12.601687 3.0027969 4
-8.7390442 11.351978 0.33261073 10
-8.8574343 11.505766 0.67713672 5
-8.7230387 11.331187 1.3341141 8
-10.12907 13.157617 1.9418074 5
-9.1395845 11.872278 2.1056893 12
-9.6069164 12.479341 2.5874436 9
-9.7400236 12.652246 3.0083516 4
-8.7899637 11.488477 1.6916189 9
-8.982769 11.740474 2.0775762 11
-9.6346083 12.592427 2.6049526 10
-9.5352411 12.462555 2.9565089 7
-3.672564 4.8296685 0.28294778 9
-8.4929209 11.168761 1.3090333 8
-8.7498217 11.506603 1.6904573 9
-8.9874516 11.819102 2.0867617 15
-9.5792799 12.597397 2.6000888 7
-9.4982176 12.490794 2.9565089 9
-5.6494403 7.4726081 -0.4368594 1
-8.8434019 11.697314 0 10
-8.6251793 11.408668 0.33205366 20
-8.7868137 11.622463 0.67946589 15
-9.8830814 13.072516 1.1459594 13
-8.7140636 11.526236 1.6897604 9
-8.9723301 11.86785 2.0909369 6
-9.2774668 12.271459 2.5274591 4
-9.4313002 12.474937 2.9465106 6
-4.5879726 6.1039443 -0.17728406 3
-8.5968914 11.437502 0.33219293 15
-8.6847029 11.554328 0.67406225 7
-3.8108292 5.0700145 0.44351166 6
-8.6170654 11.464342 1.3380156 27
-8.6830378 11.552113 1.6899928 9
-9.412961 12.52322 2.9516947 3
-5.5034857 7.367373 -0.42884707 3
-4.4501815 5.9573421 -0.1726419 5
-8.5042868 11.384467 0.32991827 4
-8.617198 11.535619 1.0068649 3
-8.6308928 11.553951 1.6865082 9
-8.6715164 11.608333 2.036381 11
-9.348712 12.514877 2.9431779 9
-3.4015357 4.581841 -0.13248722 1
-5.0691056 6.8280449 0 6
-3.1929624 4.3008947 0.12436345 4
-8.5734158 11.548323 1.0057489 14
-8.6034851 11.588825 1.3465616 10
-8.5693359 11.542827 1.6811653 6
-9.2904463 12.514156 2.9365125 7
-3.3661683 4.5607557 -0.13160521 4
-4.7673521 6.4591918 0 5
-8.3602095 11.327084 0.32685444 9
-8.6725235 11.750232 0.68104976 7
-8.6086693 11.663717 1.0137011 17
-8.6302185 11.692914 1.3558508 9
-9.7992887 13.276864 1.9297278 8
-9.1514091 12.399066 2.165812 6
-9.4531031 12.807824 2.6153283 2
-9.2683058 12.557446 2.9405859 6
-3.4788015 4.7410159 -0.13652591 3
-4.7646751 6.493443 0 5
-8.6254892 11.755078 0.67993176 11
-8.5371103 11.634631 1.0090971 17
-8.6069527 11.729815 1.357337 2
-8.4589024 11.528048 1.6721056 8
-9.1097155 12.414995 2.1641419 6
-9.4126253 12.82781 2.6140313 10
-9.2366858 12.588035 2.9416966 3
-5.3946829 7.3979545 0 6
-8.2830477 11.358891 0.32639021 14
-8.363842 11.469687 0.99263459 16
-8.4586039 11.599638 1.6788423 6
-8.5617275 11.741056 2.0422263 5
-9.2270908 12.653496 2.9505839 6
-5.3727102 7.4139276 0 6
-8.2258463 11.351036 0.32546178 14
-8.5497246 11.797964 0.67946589 16
-8.4250221 11.625884 1.3395019 14
-8.9685106 12.375856 1.7873271 7
-8.4908285 11.716692 2.0335975 11
-9.3270788 12.870654 2.6114376 10
-9.1941223 12.687182 2.9520652 1
-3.8489327 5.3445377 0.15291272 5
-8.3730307 11.626593 1.336715 10
-8.3431864 11.585152 1.6695502 8
-8.3969955 11.65987 2.0194018 5
-9.2992258 12.912686 2.6143558 2
-9.1656227 12.727168 2.9550276 6
-8.1766262 11.420986 0.32611167 14
-8.284339 11.571438 0.99514586 13
-8.2825718 11.56897 1.3274258 19
-8.3119602 11.610019 1.6697825 8
-8.2917709 11.581819 2.0018661 11
-9.2642813 12.940206 2.6146798 10
-2.9239755 4.108357 -0.11707526 16
-3.9012311 5.4814582 0 3
-8.1284666 11.420972 0.32546178 14
-8.2982655 11.65955 1.0007263 14
-8.2825613 11.637484 1.3326278 12
-8.2714405 11.621858 1.6681564 8
-8.2858067 11.642043 2.0082679 11
-9.215519 12.948343 2.6111133 2
-3.3282325 4.7041116 -0.13378704 9
-3.9494426 5.5821276 0 5
-8.1173306 11.473005 0.32629737 14
-8.6391869 12.210594 0.69754028 20
-8.2576094 11.671274 0.99974978 14
-8.2477331 11.657315 1.3322563 19
-8.2079773 11.601125 1.6618843 8
-8.4088364 11.885018 2.046123 11
-2.8937328 4.117363 -0.23468731 8
-3.3433311 4.7570763 -0.134994 6
-3.9951382 5.6845036 0 5
-8.057106 11.464095 0.32532254 14
-8.2507324 11.739597 1.0033771 14
-8.1790104 11.637548 1.3270543 12
-8.208045 11.67886 1.669318 12
-8.3509607 11.882208 2.0411129 11
-2.8799341 4.1221533 -0.234501 9
-3.3254514 4.7598386 -0.1348083 6
-3.3962195 4.8611312 0 1
-8.0307827 11.494749 0.32555464 14
-8.2799129 11.851338 1.348791 14
-8.1742582 11.700109 1.6690856 21
-8.3075342 11.890874 2.0386078 11
-3.3501444 4.8274126 0 3
-8.0504913 11.60041 0.3278293 14
-8.7512655 12.610194 0.715801 6
-8.2460489 11.882199 1.3493484 10
-8.2031517 11.820386 1.6825591 29
-8.2611055 11.903895 2.036381 11
-7.8629375 11.389462 0 9
-12.699993 18.395937 0.51899338 10
-8.648922 12.52796 0.70993149 8
-8.233963 11.926892 1.3521352 11
-8.0534887 11.665476 1.6577028 6
-8.2522497 11.953382 2.0413911 8
-3.9124258 5.7054057 0 5
-12.660224 18.46213 0.51973611 10
-8.0310307 11.711477 0.66223007 5
-8.2020798 11.960915 1.3530641 15
-13.631702 19.878815 2.8187454 6
-8.2426548 12.020084 2.0483499 2
-2.8837776 4.2306299 0 1
-7.9710464 11.693879 0.32857203 14
-7.9465346 11.657919 0.65794438 5
-8.7010546 12.764832 1.0802488 16
-8.1966896 12.024908 1.3577087 15
-13.543694 19.8692 2.8120086 19
-2.8420503 4.1961145 0 4
-7.9452815 11.730724 0.3289434 14
-8.7045345 12.851716 1.0854107 16
-8.186655 12.087099 1.3619816 18
-13.578248 20.047457 2.8315217 19
-2.793103 4.1503139 -0.11614683 4
-2.8485715 4.2327352 0 4
-7.9160252 11.762541 0.32917553 14
-7.8995233 11.73802 0.65980774 11
-8.6240377 12.814587 1.0801092 12
-8.1029501 12.040296 1.3539931 4
-13.18931 19.598194 2.7625282 18
-2.7796659 4.1569204 -0.11610041 4
-2.8026495 4.1912913 0 4
-3.0208447 4.5175967 0.1261739 2
-7.8413429 11.72653 0.65785122 9
-7.9261179 11.853309 0.99709904 3
-13.151251 19.667364 2.2072983 17
-13.226068 19.779251 2.7825062 19
-13.643479 20.403479 3.4495447 7
-2.8016341 4.213603 0 4
-12.474429 18.761299 0.5230785 10
-7.8382716 11.788608 0.66018039 11
-7.8773856 11.847434 0.99486685 10
-13.1339 19.753128 2.2130578 17
-13.256735 19.93787 2.7999289 6
-2.8192263 4.2674718 -0.11874644 6
-2.790221 4.2235665 0 3
-2.7916737 4.2257652 0.1175859 4
-7.7845354 11.783477 0.65859652 11
-7.8553925 11.890733 0.99654096 10
-13.209141 19.99472 2.2357233 18
-13.15919 19.919109 2.7917984 6
-2.8171761 4.29037 0.11916423 1
-7.7537937 11.808508 0.65878284 13
-7.8922434 12.019358 1.0054698 3
-13.01663 19.823456 2.2125003 17
-13.279058 20.223116 2.8291988 13
-3.1477261 4.8267608 -0.13378704 21
-3.1507592 4.8314118 0 15
-3.9144518 6.0024672 0.16637498 6
-7.7057424 11.816077 0.65785122 9
-13.493248 20.690708 1.7273098 18
-13.104397 20.094439 2.2381384 18
-13.015797 19.958578 2.7864554 19
-3.133148 4.8338537 -0.1337406 14
-2.9305713 4.5213161 0 29
-7.6716309 11.835872 0.65775806 9
-13.220557 20.396814 1.6996863 9
-12.731965 19.643009 2.1838894 11
-13.017278 20.083193 2.7987673 13
-3.2099385 4.986578 -0.13768645 6
-3.1361086 4.8718848 0 7
-3.6320143 5.6422648 0.15579087 11
-2.7488208 4.2702408 0.23683016 4
-12.641305 19.638025 1.6331385 8
-12.8696 19.992678 2.2182596 24
-13.2068 20.51651 2.8533583 13
-3.1004682 4.8424788 0 5
-3.5330422 5.5180964 0.15212357 5
-3.5613983 5.5623846 0.30800965 3
-12.690098 19.820082 1.6456947 17
-12.613468 19.700397 2.1824033 17
-13.022731 20.339605 2.8243206 13
-2.7988932 4.4018526 -0.24325867 34
-2.9889269 4.7007208 -0.12933056 30
-3.4297144 5.3939528 0 13
-3.5135446 5.5257936 0.15203072 7
-12.054216 18.957809 1.0476614 15
-12.588164 19.797556 1.6405327 25
-12.687218 19.953339 2.2059979 17
-12.840462 20.194347 2.7985351 6
-2.7727165 4.3876958 -0.2420475 16
-3.1648464 5.0082235 -0.13754718 21
-3.1870675 5.0433874 0 14
-12.299429 19.46328 0.53454465 11
-12.141041 19.212637 1.0598662 16
-12.511516 19.798897 1.6377425 25
-12.784636 20.231098 2.2327507 18
-12.805243 20.263708 2.8031812 13
-2.882189 4.5910416 -0.37905669 9
-2.8053606 4.4686613 -0.24605368 23
-3.1967483 5.0921035 -0.13958973 42
-12.201223 19.435341 0.53278059 10
-12.11903 19.304415 1.0629407 21
-12.427252 19.795382 1.6343942 25
-12.475732 19.872606 2.1890917 17
-12.774632 20.348724 2.8096855 6
-2.817194 4.5154624 -0.24819651 17
-3.2904706 5.2740407 -0.14432473 23
-3.1082098 4.9819093 0 5
-12.081286 19.364161 0.52990252 10
-11.936063 19.131393 1.0515743 21
-12.510274 20.05175 1.6526704 25
-12.423353 19.912432 2.1896489 23
-12.774542 20.475325 2.8222296 19
-2.8229845 4.5565596 -0.24996668 12
-3.3170578 5.3540397 -0.14622802 25
-11.98353 19.342531 0.5282777 10
-12.250469 19.773397 1.0847418 23
-12.601672 20.340271 1.6731788 26
-12.489728 20.159582 2.2125003 17
-12.727933 20.544067 2.8261788 19
-2.8330491 4.5996561 -0.2519232 11
-3.1216264 5.0681825 -0.13819709 23
-3.6259222 5.8869424 0 5
-11.922369 19.356813 0.52781355 10
-11.861297 19.257656 1.054742 21
-12.479326 20.261072 1.6639709 26
-12.50166 20.297333 2.2240188 18
-2.844414 4.648941 -0.25415921 13
-3.2025802 5.2343321 -0.14246787 59
-3.6032212 5.8891439 0 5
-11.804361 19.293177 0.52512103 21
-11.766573 19.231415 1.051388 15
-12.191121 19.925301 1.6334175 17
-12.297961 20.09992 2.1983807 11
-12.803763 20.926609 2.8689225 6
-2.8148127 4.6295543 -0.25266853 12
-3.0487556 5.0143223 -0.13624738 14
-3.557667 5.8513346 0 5
-11.941565 19.640425 0.53366262 11
-11.86539 19.515141 1.0650835 22
-12.523081 20.596851 1.6855955 27
-12.312128 20.249895 2.211014 23
-12.32421 20.269766 2.7741435 12
-2.6100392 4.3232975 -0.47114792 11
-2.8136783 4.6606073 -0.2538797 44
-3.0650232 5.0769382 -0.13768645 10
-11.754768 19.470728 0.52804565 21
-11.722455 19.417204 1.0577234 21
-12.231462 20.260326 1.6549026 8
-12.631314 20.922647 2.2801256 19
-2.8407364 4.7352605 -0.25751323 26
-3.3234148 5.5398436 -0.14998817 13
-3.2934439 5.4898849 0 13
-11.763098 19.608063 0.53087735 10
-11.557193 19.264835 1.0476614 21
-12.100943 20.171221 1.6448578 25
-12.43147 20.722181 2.2544875 18
-2.7732828 4.652225 -0.25257537 8
-3.0192156 5.0647812 -0.13689728 11
-3.4634583 5.8100052 0 23
-11.630481 19.510313 0.52734929 10
-11.452195 19.211237 1.0430031 20
-12.046603 20.208364 1.6451367 25
-11.97996 20.096571 2.1827748 17
-12.730704 21.355955 2.9074845 14
-2.7562084 4.6530747 -0.25220269 4
-2.9918137 5.0508275 -0.1362938 9
-3.4411054 5.809329 0 52
-11.473036 19.368961 0.52266073 10
-11.534942 19.473473 1.0554874 16
-11.709491 19.768148 1.6066312 16
-12.156204 20.522297 2.2253194 18
-9.7545052 16.46771 2.6899378 14
-2.8218184 4.7981501 -0.38924113 40
-3.0083675 5.1153536 -0.1377793 13
-3.3762007 5.740808 0 22
-11.403011 19.389397 0.52224296 10
-8.9539299 15.22504 0.82368827 17
-11.711051 19.913179 1.6154205 24
-12.412693 21.106234 2.2843986 19
-12.302664 20.919144 2.8380265 6
-9.858346 16.762886 2.7330816 20
-2.8778622 4.92487 -0.39886752 32
-3.1151237 5.3308945 -0.14334987 40
-3.4459243 5.8969917 0 8
-11.615134 19.876917 0.53449821 11
-8.9970512 15.396605 0.8316074 11
-11.646332 19.930305 1.6141648 24
-12.405942 21.230223 2.2940595 12
-9.7316113 16.653654 2.2556467 14
-2.6117065 4.4981871 -0.48526752 85
-2.8310399 4.8759494 -0.3942636 29
-3.4123724 5.8771877 0 8
-11.522438 19.845295 0.53278059 10
-8.9159031 15.356015 0.82806706 8
-12.052456 20.758154 1.6784803 17
-11.732679 20.207397 2.1799881 11
-9.5214911 16.399029 2.2175493 10
-9.7844572 16.85194 2.7386487 25
-2.9863837 5.1809187 0 4
-11.351192 19.692581 0.52772069 21
-11.920594 20.680407 1.1131577 24
-11.636459 20.187477 1.6293718 16
-11.693001 20.285566 2.1844468 11
-9.4500799 16.394444 2.212903 14
-2.9566722 5.1605506 -0.27735776 14
-2.8266556 4.9336209 0 13
-11.33936 19.791624 0.52957755 10
-11.89919 20.768747 1.1162322 12
-12.270909 21.417543 1.7260542 18
-8.8066139 15.37099 1.6527336 6
-9.3172655 16.262278 2.1917639 14
-3.0134718 5.2960601 -0.28415895 45
-2.9841063 5.2444515 0 18
-11.187631 19.661827 0.5252139 10
-2.7723942 4.872375 0.26142621 6
-12.054366 21.185081 1.7044297 18
-8.7402821 15.360706 1.648832 9
-9.2208309 16.205254 2.1803811 13
-2.7462118 4.8578691 -0.39021772 29
-3.1756423 5.6175036 -0.30092898 19
-2.9283073 5.1799841 -0.13815066 11
-2.9960246 5.2997723 0 6
-9.1981907 16.271 0.43394905 15
-8.8947477 15.734228 0.84288067 9
-11.868504 20.994608 1.6864325 18
-8.694416 15.379854 1.6482747 9
-9.4912481 16.789398 2.7105355 20
-2.8889515 5.1438417 -0.27512175 10
-2.8394191 5.0556483 -0.13462262 15
-3.3014693 5.8783388 0 10
-11.730718 20.886801 0.55617714 11
-8.7656641 15.607457 0.83477503 11
-8.8212271 15.706388 1.2596624 10
-8.6455851 15.393654 1.6471599 9
-9.1476946 16.287672 2.1845624 31
-9.4443293 16.815836 2.7105355 20
-2.8756945 5.1581283 -0.27540123 9
-2.859545 5.1291609 -0.13634022 11
-3.2450025 5.8205552 0 10
-11.21522 20.11672 0.53473037 11
-8.7107477 15.624453 0.83421612 11
-8.5843334 15.397702 1.2327365 20
-8.5709972 15.373781 1.6421438 6
-9.1699915 16.448196 2.2022173 17
-2.8729577 5.1893587 -0.2766124 9
-2.8501256 5.1481175 -0.13661875 9
-9.1295052 16.490419 0.43761635 7
-9.0098047 16.274208 0.8674767 9
-8.5531073 15.449285 1.2348292 20
-8.5166655 15.383462 1.6404718 12
-9.0807409 16.402338 2.1924608 31
-9.3155279 16.826427 2.7030201 14
-2.8713908 5.2208796 -0.13833636 47
-2.9666181 5.3940258 0 7
-3.3695481 6.1266494 0.16233632 6
-8.5906973 15.619955 1.2465482 21
-8.9736376 16.316233 2.1775935 60
-2.8855608 5.281517 -0.13972899 46
-3.0244222 5.5356784 0 5
-3.3505099 6.132525 0.16224347 6
-8.8862095 16.264662 0.86430895 18
-8.5747881 15.694658 1.2505941 15
-8.4669018 15.49719 1.6475314 12
-8.8832779 16.259295 2.1666753 20
-9.0501995 16.564816 3.5564015 7
-2.9041805 5.3510613 -0.14135374 65
-2.9812841 5.4931278 0 5
-3.7272701 6.8676348 0.18141559 7
-8.8826818 16.366674 0.86840826 18
-8.5299702 15.716789 1.2504545 15
-11.291295 20.804634 2.2084131 5
-8.8946867 16.388794 2.1806133 10
-9.0048399 16.591755 3.556772 15
-2.8010263 5.1977205 -0.13708296 14
-3.0133617 5.5917401 0 11
-3.7087753 6.8821836 0.18150842 7
-8.8426161 16.408787 0.86924684 19
-8.4681597 15.713927 1.2482224 10
-8.7421532 16.222364 1.7192441 13
-8.9307928 16.572412 3.0929356 3
-2.8874679 5.3964086 -0.14209649 25
-4.7074356 8.7977581 0 5
-3.6836205 6.8843431 0.18127632 7
-8.696804 16.253515 0.85965061 40
-8.5447989 15.969433 1.2664984 16
-8.7231016 16.302664 1.7250035 13
-9.127161 17.057814 2.2623835 14
-9.0139656 16.846262 2.6852059 19
-8.8694725 16.576218 3.0887201 13
-8.8097887 16.464674 3.5182602 28
-2.6509974 4.9900012 -0.13118742 16
-3.5834703 6.7452049 0 5
-3.6753743 6.9181967 0.1818798 4
-8.8641243 16.685038 0.88107902 22
-8.6485338 16.27923 1.7198013 6
-8.9534922 16.853254 2.2317197 7
-8.9648743 16.87468 2.6854844 14
-8.7508106 16.471745 3.0644021 13
-8.6733017 16.325848 3.4830813 14
-2.8974237 5.488482 -0.14409262 28
-4.6778369 8.8610525 0 4
-6.5248046 12.359694 0.32448694 9
-8.5415411 16.179924 0.85322207 21
-8.6408348 16.368011 1.2942616 22
-8.6031008 16.296534 1.7192441 13
-9.3804522 17.769041 2.3497288 16
-9.1139126 17.264145 2.7436588 5
-8.7214813 16.520777 3.0692658 13
-8.7911053 16.652664 3.5478847 20
-2.3203275 4.4270797 -0.46631756 49
-3.0611951 5.8406215 -0.15309842 18
-3.099158 5.913053 0 3
-8.5626211 16.337093 0.4282392 7
-8.3553047 15.941543 0.83934027 9
-8.1671085 15.582473 1.2302252 15
-8.5944557 16.397833 1.7272329 33
-8.6434383 16.491287 2.177361 13
-9.1371164 17.433205 2.7662048 20
-8.6366882 16.478411 3.0566204 19
-8.754427 16.703049 3.5530689 17
-3.0078585 5.7805037 -0.15128797 21
-4.6482511 8.9330101 0 4
-8.5214977 16.376617 0.42861059 7
-8.2701616 15.8936 0.83552045 11
-8.2083302 15.774771 1.2434789 35
-8.4446554 16.228941 1.7067965 22
-8.3817434 16.108038 2.1234672 13
-9.0954103 17.479563 2.7692666 5
-8.5085068 16.35165 3.0284114 16
-8.5496969 16.430811 3.489747 14
-2.545624 4.9278312 -0.1287735 4
-2.5967958 5.0268898 0 2
-3.6514199 7.0684357 0.18471152 7
-8.7492847 16.936907 0.88899821 10
-8.1147919 15.708652 1.2363638 5
-8.2392702 15.949617 1.6748418 13
-8.3412085 16.146952 2.1253254 13
-9.017149 17.455441 2.7611945 5
-8.4382172 16.33474 3.0206296 6
-8.4197264 16.298946 3.4564197 19
-2.5300262 4.9313636 -0.12868066 4
-2.573617 5.0163279 0 4
-8.5703268 16.704727 0.43589875 22
-8.6344633 16.829737 0.88210386 13
-8.3255901 16.227703 1.7015946 19
-8.2951746 16.168419 2.1250935 13
-8.3535986 16.282293 2.5719192 4
-8.9258833 17.397755 3.2125804 3
-8.4271069 16.425571 3.4782674 16
-8.4642887 16.626438 0.43315989 22
-8.5498285 16.794464 0.87884301 13
-7.8865633 15.491611 1.2155763 20
-8.4326715 16.564335 1.7341068 16
-8.6066313 16.906042 2.2184784 10
-8.2691612 16.243149 2.5616202 13
-8.0975981 15.906147 2.9324362 12
-8.3781414 16.457218 3.4793785 9
-2.2791419 4.5060711 -0.35310727 8
-2.5069959 4.9565592 -0.12895918 3
-2.8678443 5.6699896 0 13
-8.44419 16.694933 0.43436685 22
-8.3498297 16.508375 0.86272514 12
-7.8567805 15.533571 1.2172505 15
-8.4099445 16.627228 1.7383798 13
-7.8208647 15.462563 2.0263653 3
-8.2283916 16.268282 2.5621772 17
-8.0479069 15.911446 2.929518 12
-8.3376827 16.484358 3.4804893 14
-2.3033614 4.5876999 -0.35896683 19
-2.4615593 4.9027891 -0.25583619 3
-2.4886906 4.9568276 -0.1287735 4
-2.8644705 5.7052841 0 18
-8.578536 17.086226 0.44388327 15
-7.836472 15.608224 0.81446475 2
-7.7479959 15.432002 1.2074846 4
-8.5080061 16.945745 1.7690341 14
-8.4844427 16.898813 2.211277 14
-8.1720915 16.276691 2.5596719 17
-8.0653067 16.064003 2.9531877 12
-8.4316025 16.793571 3.5404787 22
-2.2513721 4.5155511 -0.35282823 9
-2.4784083 4.9709153 -0.12895918 4
-2.9600778 5.9369941 0 5
-8.3907242 16.82918 0.43659508 7
-7.8338633 15.71229 0.81875038 13
-7.7111053 15.466076 1.2084612 14
-8.2687302 16.584497 1.7289048 10
-7.8433638 15.731344 2.055635 6
-8.2458496 16.538607 3.0361931 13
-8.1671886 16.380836 3.4486432 15
-2.8888795 5.8349385 -0.3036308 10
-2.4671795 4.983192 -0.12909845 3
-2.7908561 5.6369519 0 5
-8.0021439 16.162674 0.41872278 14
-7.9635563 16.084734 1.2550584 26
-7.7346649 15.622421 1.6263522 3
-7.7888293 15.731823 2.0528476 6
-8.1214867 16.403721 2.5724759 13
-8.125205 16.411232 3.0086327 18
-8.5164547 17.201475 3.6163912 15
-2.7956648 5.691566 -0.29571164 20
-8.0474091 16.383352 0.42378274 7
-7.6191907 15.511562 1.2084612 14
-7.3808951 15.026427 1.5618851 8
-8.1833897 16.660191 2.1706245 13
-8.0943575 16.478933 2.5802696 13
-8.0475006 16.383539 2.9989057 15
-8.358387 17.016459 3.5719545 30
-2.5249033 5.1768212 -0.26860008 31
-2.5129421 5.152297 -0.1330907 40
-2.7950535 5.7307115 0 30
-8.0980368 16.603443 0.4288891 22
-7.7000341 15.787416 1.2282721 15
-7.3319168 15.032664 1.5603988 8
-8.1272497 16.663338 2.1680689 10
-8.315711 17.049744 2.6660001 19
-8.0397787 16.483997 3.0131721 12
-8.2927361 17.002638 3.564178 10
-2.2495918 4.6452255 -0.72537029 12
-2.4242506 5.0058818 0 7
-8.1039314 16.733965 0.43167442 15
-7.9553795 16.427217 0.85117245 12
-7.2977228 15.069209 1.5620708 8
-7.8754888 16.262249 2.1130137 13
-8.0401678 16.602299 3.0306811 19
-8.1612749 16.852373 3.5278883 7
-2.4456942 5.090867 -0.26338273 7
-2.8935933 6.0231977 -0.15514097 14
-2.5453508 5.2983088 0 47
-2.4546187 5.1094446 0.13160521 4
-7.7817545 16.198215 0.83803594 12
-7.6044912 15.82923 1.2279929 10
-7.8123207 16.261841 2.1097615 13
-8.1106224 16.882774 2.6323204 69
-8.0452328 16.746662 3.0524054 19
-8.0827618 16.824781 3.5167792 9
-2.2365594 4.6848311 -0.3630127 14
-2.6118276 5.4708905 -0.14075027 15
-2.365237 4.9543676 0 3
-7.8372059 16.416281 0.42234367 7
-7.4334226 15.570493 1.206508 14
-7.3138294 15.319986 1.5838077 12
-7.7948165 16.32749 2.1158013 13
-8.2075777 17.192085 2.6774123 58
-7.9753823 16.705715 3.0413811 19
-2.7657754 5.840486 -0.15003459 43
-7.9199409 16.724533 0.42963183 7
-7.6261792 16.104198 0.83095527 11
-7.355433 15.532463 1.2017645 14
-7.2827058 15.378885 1.5875232 36
-7.3047833 15.425507 1.9959337 2
-7.969583 16.829363 2.6170113 9
-8.1215734 17.150322 3.5752873 27
-2.1358285 4.5471015 -0.35129359 61
-2.5294309 5.3850665 -0.27745092 4
-2.3376825 4.976841 -0.12765938 3
-2.5925508 5.5194468 0 28
-7.7475042 16.494156 0.4230864 22
-7.7773671 16.557734 1.2791942 16
-7.3655849 15.681064 1.6163199 12
-7.2512231 15.437592 1.9945399 2
-7.9444623 16.913473 2.6261966 13
-7.9096942 16.839453 3.0566204 22
-8.1319981 17.312729 3.6038005 17
-2.5366607 5.4374037 0 8
-7.5901794 16.269762 0.41681948 14
-7.5939751 16.277899 1.2560351 15
-7.4086981 15.880753 1.6348982 43
-7.7452531 16.602167 2.5747025 18
-7.8664188 16.861889 3.0569446 35
-7.9262781 16.9902 3.5323319 33
-2.3046067 4.9784942 -0.25583619 5
-2.5037115 5.4086075 0 1
-7.7014585 16.636967 0.4256396 7
-7.3523402 15.88279 1.6328546 12
-7.7067709 16.648443 2.578321 18
-7.7717953 16.788912 3.4856734 16
-2.8780131 6.2601237 0 7
-7.2102156 15.683333 0.40075761 6
-7.2260261 15.717725 0.80673188 7
-7.7912917 16.947264 1.3043065 28
-7.2957644 15.869416 1.6295105 12
-7.5292692 16.377325 2.107903 13
-7.6714344 16.686556 2.5811045 18
-7.4300079 16.161417 2.9223847 12
-7.768867 16.898487 3.5041888 19
-2.1280644 4.6652961 -0.4783935 13
-7.1578374 15.691926 0.40043268 6
-7.1826711 15.746368 0.80710453 16
-7.6987419 16.877735 1.2971914 28
-7.2643437 15.925417 1.6330403 12
-7.5051694 16.453373 2.5415795 13
-7.2870097 15.975107 2.8847725 9
-7.7872062 17.071674 3.5352945 12
-2.1556861 4.7632265 -0.24381767 17
-3.1055164 6.8619823 0 10
-4.3453975 9.6016369 0.24468823 9
-7.130156 15.754869 0.80645233 10
-7.38622 16.320671 1.2526867 21
-7.5315266 16.641741 1.7041956 9
-7.3901796 16.32942 2.0960557 22
-7.4693871 16.504436 2.5460329 13
-7.3095608 16.151283 2.9126575 12
-7.7478671 17.11977 3.5404787 22
-2.1269045 4.7392149 -0.60746819 16
-2.0695438 4.611402 -0.23571217 2
-2.2527678 5.0196657 0 4
-7.3131776 16.29538 0.41468409 28
-7.8111567 17.404987 1.3340228 23
-7.4209862 16.535601 2.119518 9
-7.5342674 16.788017 2.5861146 18
-7.3064551 16.280401 2.9317877 12
-7.7511768 17.271339 3.5667703 20
-2.3949652 5.3741307 -0.41142368 20
-2.5124838 5.6378341 -0.14330345 4
-3.0472176 6.8377385 0 5
-3.7780852 8.4777527 0.21548903 8
-7.2718778 16.317574 0.83309805 11
-7.8589621 17.634949 1.3500668 24
-7.3585448 16.512049 1.6865461 16
-7.3768644 16.553158 2.1192856 3
-7.5064182 16.843866 2.5916817 22
-7.2316775 16.227367 2.9188182 12
-7.6475334 17.160519 3.5397379 20
-2.1804571 4.9320946 -0.50310278 46
-2.3459351 5.3063979 -0.40570366 43
-2.4032338 5.4360051 -0.2771714 7
-2.7390246 6.1955485 0 23
-3.0746102 6.954628 0.17654133 6
-7.3058305 16.525455 0.84260112 12
-7.6420364 17.285938 1.3216062 23
-7.5220933 17.014631 1.735593 16
-7.2321391 16.358768 2.0916419 13
-7.1545024 16.183157 2.4867451 20
-7.5997667 17.190325 3.5412192 12
-2.0914643 4.7667513 -0.48563907 71
-2.2549522 5.1393638 -0.39244995 40
-2.2743099 5.1834826 -0.13141952 38
-2.6871569 6.1244211 0 6
-3.0648153 6.9851594 0.17709838 6
-7.2604513 16.547623 0.84269422 15
-7.5608625 17.232304 1.3158861 11
-7.1881089 16.382744 1.6690824 12
-7.5950694 17.310266 2.2105803 14
-7.2127261 16.43885 2.5229301 17
-7.3886633 16.839836 3.0212784 15
-7.178997 16.361977 3.3664358 6
-2.0113654 4.6192083 -0.47003326 16
-2.2358134 5.1346645 -0.39161286 19
-2.4222858 5.5629086 -0.28294778 20
-2.2590287 5.1879797 -0.13137311 6
-3.0429034 6.9881902 0.17695911 6
-7.2907858 16.743679 0.85163832 6
-7.3884587 16.967989 1.2941221 27
-7.0676036 16.231129 1.6516187 12
-7.0724564 16.242273 2.0716639 12
-7.1889338 16.509769 2.5307238 17
-7.6307688 17.524467 3.1402745 13
-7.1191568 16.349524 3.3597701 2
-2.1730173 5.0335908 -0.38338158 29
-2.2213233 5.1454868 -0.13011973 21
-3.0811646 7.137229 0.18048716 2
-7.3347549 16.990273 0.86300462 12
-7.2615781 16.820765 1.2811474 22
-6.9952712 16.20389 1.6466026 12
-7.0143127 16.247997 2.0695732 12
-7.1550899 16.574095 2.5371258 12
-7.8400669 18.16078 3.2498682 21
-7.3528709 17.032236 3.4953012 11
-1.9758958 4.6145592 -0.5870257 10
-2.1690543 5.0656672 -0.12793791 19
-2.1971924 5.131381 0 20
-3.0489535 7.1206069 0.17983724 7
-7.2646465 16.966047 0.86067551 12
-7.1927857 16.798222 1.2777991 21
-6.9330478 16.191624 1.6432585 15
-6.6400108 15.507257 1.9727036 5
-6.9632139 16.262074 2.4861884 16
-7.4474463 17.392963 3.1084991 13
-7.3216391 17.09915 3.5045593 14
-2.1596971 5.0805283 -0.12817001 32
-2.4857681 5.8475871 0 35
-3.0584626 7.1948085 0.18150842 2
-7.1998868 16.937204 0.85825318 9
-7.1113205 16.728859 1.2711024 21
-6.8454528 16.103424 1.632483 12
-6.924233 16.28875 2.0698056 12
-6.923718 16.287539 2.4873021 16
-7.5277367 17.708447 3.1613503 13
-7.3214469 17.223166 3.5260367 26
-2.343878 5.5595574 -0.28136393 15
-2.0754831 4.9229388 -0.1240385 7
-2.5010405 5.9323387 0 28
-7.0746632 16.780735 0.4228079 7
-3.6881151 8.7480183 0.44272894 5
-7.0477052 16.716793 1.2685913 21
-6.8707471 16.297058 2.4856317 16
-7.5579667 17.927107 3.1963685 24
-7.2649708 17.232136 3.5234447 9
-2.3345125 5.5808249 -0.28210926 15
-2.4759758 5.9190035 0 28
-3.8371911 9.17309 0.23085457 9
-3.6682994 8.7693415 0.44328794 5
-6.6298909 15.849246 1.2013459 19
-7.1099377 16.996834 1.7188725 20
-6.594965 15.765753 1.9984891 12
-6.8573146 16.39292 2.4973223 12
-6.8803177 16.44791 2.9291937 6
-7.7409258 18.505257 3.7793248 27
-2.1633105 5.2149668 -0.26328957 16
-2.3765292 5.728961 -0.14399979 11
-2.4124212 5.8154836 0 10
-6.8974509 16.627285 0.41793358 7
-6.582068 15.867008 1.2012066 9
-6.6909313 16.129438 1.6291388 9
-6.5595698 15.812774 2.0019734 12
-6.8738275 16.570337 2.9473512 3
-2.2640851 5.5039878 -0.41616711 14
-2.2253485 5.4098196 -0.27279258 8
-2.3268111 5.6564751 -0.14200366 23
-2.5655839 6.2369318 0 35
-3.591002 8.729722 0.21915634 8
-6.9678941 16.938944 0.85415375 9
-6.5417862 15.903075 1.2024621 14
-6.6225858 16.099499 1.6241227 12
-6.5156422 15.839519 2.0029027 12
-6.7862763 16.497431 2.5070643 8
-6.7795801 16.481152 2.9278967 3
-7.6735854 18.654478 3.8004322 11
-2.2004614 5.3920665 -0.4072383 14
-2.2838101 5.5963058 -0.14033248 4
-2.5201983 6.1755576 0 5
-3.573411 8.7563763 0.21957412 8
-6.5064001 15.943447 1.2041363 14
-6.5595469 16.073679 1.619664 12
-6.4593782 15.828223 1.9991858 12
-6.7156363 16.456165 2.920115 12
-7.6288919 18.694029 3.8041353 8
-1.9187875 4.742013 -0.3577112 8
-1.9139547 4.7300696 -0.1184679 4
-3.2385461 8.0036106 0 6
-3.5774157 8.8410797 0.22143102 8
-6.8777184 16.997313 0.85508549 40
-6.4485922 15.936789 1.2021831 19
-6.491662 16.04323 1.6146476 9
-6.4958415 16.053558 2.0252037 3
-6.8170562 16.847395 2.9859359 12
-1.8981861 4.7266555 -0.35617656 21
-2.003499 4.988894 -0.25071204 23
-1.9008181 4.7332096 -0.11842149 4
-1.9199637 4.7808838 0 4
-3.6310024 9.0415249 0.22621243 8
-7.1749234 17.866209 0.89784902 10
-6.5570316 16.327602 1.2303647 10
-6.4715524 16.114752 2.0307789 3
-6.6559515 16.573923 2.5101264 12
-6.8567643 17.073965 3.0228996 3
-7.6173835 18.967976 3.8511639 17
-2.7435215 6.8941641 0 3
-7.0766587 17.782856 0.89253861 6
-6.4481678 16.203529 1.2194827 15
-6.4705753 16.259836 2.4594672 12
-7.0730877 17.773882 3.1428688 3
-7.478549 18.792761 3.8108006 11
-1.8484318 4.6829247 -0.23478051 4
-1.9673986 4.9843221 -0.12440987 2
-2.7125108 6.8720331 0 5
-3.3930285 8.596096 0.2145606 16
-6.7387066 17.072233 0.85592395 12
-6.3633409 16.121258 1.211949 19
-6.3988223 16.211149 1.6259806 12
-6.4837589 16.426332 2.0651596 18
-6.3102565 15.986772 2.4154885 7
-6.8640194 17.389706 3.0715356 22
-7.7724147 19.691088 3.9885468 18
-1.877738 4.8012877 -0.36050147 13
-3.4497533 8.820858 0.21989907 8
-6.461628 16.522079 1.2405491 30
-6.3814712 16.317123 2.0488985 12
-6.2448483 15.967784 2.4096434 15
-6.7209344 17.185114 3.0316539 13
-7.720531 19.741035 3.993731 12
-1.9112206 4.9274192 -0.36956981 3
-2.0077281 5.1762304 -0.25891072 44
-1.9312787 4.9791322 -0.12399208 2
-3.2379873 8.3480272 0 6
-3.4222171 8.823 0.2197134 11
-3.4439867 8.8791256 0.44412643 6
-6.4082522 16.521456 1.239154 20
-6.3716412 16.427067 1.6438159 21
-6.3552785 16.384882 2.0551705 12
-6.2138443 16.020243 2.4149318 15
-6.6622162 17.176214 3.0267901 13
-7.6390796 19.694717 3.9800296 18
-2.1697123 5.6405163 -0.28182974 18
-1.8748019 4.8738489 0 4
-3.4377658 8.937026 0.222313 5
-3.4220488 8.8961668 0.44449911 3
-6.2396083 16.220865 1.2152973 30
-6.3686419 16.556311 1.6549628 34
-6.355145 16.521223 2.0700378 21
-6.1968164 16.109623 2.4257872 15
-6.5816355 17.11002 3.0118752 12
-7.5777044 19.699463 3.976697 15
-1.7823634 4.6724429 -0.70282423 24
-2.1538835 5.6463776 -0.42258471 18
-1.8684187 4.8980355 -0.24446984 2
-2.2162843 5.8099608 -0.14437115 16
-2.5561857 6.7010078 0 5
-3.4177811 8.9596691 0.22263795 8
-5.9327998 15.552758 0.77626634 10
-6.2497463 16.383629 1.2261794 20
-6.2812128 16.46612 1.6441875 25
-6.2608352 16.412699 2.0542414 12
-6.1588597 16.14537 2.4285707 15
-6.4831796 16.995571 2.9885297 12
-6.8249598 17.891544 3.6078739 10
-1.7976701 4.7548842 -0.5944593 11
-2.1330774 5.642045 -0.56273937 12
-1.8464338 4.8838654 -0.36510539 3
-2.1749964 5.7529221 -0.14279282 12
-2.5193191 6.6636639 0 5
-3.292192 8.7079334 0.21613893 8
-5.8901634 15.579635 0.77673215 10
-6.1220889 16.193083 1.2105538 19
-6.3013453 16.667223 1.6623942 15
-6.3329415 16.750795 2.0941973 13
-6.1403484 16.241381 2.4402614 12
-6.4404054 17.03504 2.9920967 9
-7.4314489 19.656376 3.9592927 12
-1.8254862 4.8721085 -0.73121554 29
-1.7640399 4.7081118 -0.58795488 7
-2.2820899 6.0907555 -0.15100946 40
-2.5107648 6.7010741 0 5
-3.2670436 8.7195349 0.21618535 8
-5.9732165 15.942142 1.1904639 19
-6.2476764 16.674658 1.6612796 18
-6.2908826 16.78997 2.0967524 13
-6.3985825 17.077415 2.5630119 17
-6.4324965 17.167931 3.4541976 9
-1.9398624 5.2217112 -0.38952014 16
-2.1428597 5.7681379 -0.28695393 34
-2.2448781 6.0427504 -0.14966322 11
-2.4481614 6.5899477 0 5
-3.2468565 8.739871 0.21646388 11
-6.0514908 16.289371 0.81036532 22
-5.9543772 16.027962 1.195626 19
-6.2135649 16.725641 1.6646235 12
-6.1381249 16.522572 2.0612104 21
-6.1073952 16.439854 2.4647558 16
-6.0294709 16.230099 2.8445668 8
-6.3893151 17.198725 3.4567897 19
-2.0970531 5.6934867 -0.28294778 97
-2.2065728 5.9908319 -0.14822415 9
-2.2887349 6.213902 0 10
-3.2198083 8.7417603 0.43443707 13
-5.8709822 15.939682 1.1878132 19
-6.1840444 16.789642 1.6692683 12
-6.132472 16.649626 2.0749161 25
-6.0190253 16.341618 2.4474983 16
-6.4805231 17.594582 3.5327024 9
-2.1031184 5.7657361 -0.2862086 25
-2.2124083 6.0653563 -0.14989533 9
-2.1828489 5.9843192 0 5
-3.2237167 8.8378763 0.21841361 11
-6.8358197 18.74052 0.93027115 10
-5.8222485 15.961797 1.1880924 19
-6.1271758 16.79776 1.6681534 12
