# .PCD v0.7 - Point Cloud Data file format
VERSION 0.7
FIELDS x y z intensity
SIZE 4 4 4 4
TYPE F F F F
COUNT 1 1 1 1
WIDTH 1384
HEIGHT 1
VIEWPOINT 0 0 0 1 0 0 0
POINTS 1384
DATA ascii
-2.1563222 6.0926461 -0.30139479 4
-2.0233293 5.7168765 -0.14079669 4
-3.1462469 8.8896589 0 8
-3.9112358 11.051119 0.2721698 10
-3.713407 10.492158 0.5190326 8
-3.8168898 10.784547 0.79996723 14
-3.8907232 10.993161 1.0879505 26
-4.0674081 11.492381 1.4256337 3
-1.6867936 4.808651 -0.71618485 18
-1.9728507 5.6241322 -0.55605114 28
-2.0895205 5.9567304 -0.44141895 14
-2.5598874 7.2976356 -0.36064893 3
-2.874367 8.1941423 -0.20160899 6
-3.8463211 10.964954 0 7
-3.9346328 11.216711 0.27597636 14
-3.676821 10.48175 0.51800776 8
-3.6117537 10.296259 0.76299632 9
-3.9483383 11.255782 1.1128454 13
-4.0320144 11.494323 1.4244723 4
-1.680511 4.833921 -0.71924663 72
-1.905365 5.4807043 -0.67855245 21
-1.887168 5.4283614 -0.53617233 91
-1.9143314 5.5064955 -0.40765685 4
-1.9169226 5.5139494 -0.27223358 4
-1.9782366 5.6903162 -0.13986826 4
-3.3073626 9.5134926 0 2
-3.8967257 11.208771 0.27551216 14
-3.5882249 10.321382 0.76411241 11
-3.8024538 10.937602 1.0803332 8
-1.6517302 4.7996936 -0.83394796 41
-1.6898075 4.9103408 -0.72982383 51
-1.8986177 5.5171137 -0.54434675 21
-1.9294848 5.6068091 -0.41463247 19
-1.9548502 5.6805172 -0.28015277 4
-1.9727132 5.7324243 -0.14075027 4
-3.8653989 11.2323 0.27579069 10
-3.7549767 10.911429 0.53813183 12
-3.8063073 11.060589 1.0912945 12
-1.6477655 4.8319817 -0.59701461 15
-2.0586703 6.0369377 -0.59506577 100
-2.2621984 6.6337729 -0.490109 10
-1.9705769 5.7786083 -0.28471795 4
-1.9941288 5.8476729 -0.14344272 4
-2.9067903 8.5240021 0 6
-3.8469262 11.280899 0.27671912 10
-3.6812904 10.795181 0.53188962 17
-3.7136629 10.890112 0.80457115 9
-3.7439137 10.97882 1.0821911 8
-1.6365978 4.8462596 -0.59817612 3
-1.9566456 5.7939787 -0.57054234 15
-2.1901593 6.485455 -0.47866893 20
-1.9489466 5.7711806 -0.28406578 3
-2.7764313 8.2215109 -0.20146972 4
-3.2327902 9.5728722 0 8
-2.9395626 8.7045727 0.21330722 5
-3.5718968 10.577026 0.52061641 6
-3.5804732 10.602424 0.7825281 9
-1.6150692 4.8325372 -0.59585309 3
-2.0610018 6.1668367 -0.45467269 18
-2.3360932 6.9899526 -0.34369254 5
-2.970511 8.8882294 -0.21757801 4
-3.724705 11.144895 0.2728197 7
-3.5430851 10.60146 0.52126861 2
-3.563592 10.662819 0.78615546 9
-3.8875999 11.6323 1.144243 6
-1.5608829 4.7113938 -0.69753563 16
-1.6082356 4.8543239 -0.47709301 8
-1.9996747 6.03585 -0.44462776 10
-3.8458023 11.608231 -0.28391445 6
-3.0253916 9.1318903 0 7
-3.0302358 9.146512 0.22370566 8
-3.5130782 10.603931 0.781133 11
-1.6158597 4.9262547 -0.85178125 21
-1.7265234 5.2636337 -0.77853441 12
-1.8245587 5.5625134 -0.68459225 23
-2.1533792 6.5649848 -0.48313332 19
-2.8051126 8.5519171 -0.41971672 4
-2.873461 8.7602911 -0.21404997 3
-3.7076454 11.30346 0 7
-3.0024586 9.1535635 0.22365925 5
-3.577842 10.907729 0.53533679 9
-3.4648075 10.563122 0.7773661 9
-3.6593406 11.156193 1.0953819 3
-3.8274255 11.668632 1.4360873 4
-1.6998888 5.2348261 -0.77352411 16
-1.7700093 5.4507627 -0.67018962 18
-1.7915866 5.5172105 -0.54118848 31
-1.8701596 5.7591772 -0.4234218 10
-1.8547972 5.7118688 -0.28005958 11
-1.935975 5.9618559 -0.1455317 6
-3.5989988 11.083157 0.27054504 10
-3.5294216 10.868892 0.53291446 9
-3.4513228 10.628386 0.78141201 9
-3.6262255 11.167001 1.0953819 3
-1.7990538 5.6000323 -0.68784451 26
-1.8314993 5.7010279 -0.55865216 45
-1.774559 5.5237856 -0.40570366 4
-1.7959038 5.5902271 -0.27381742 5
-2.8971226 9.0180626 0 3
-2.9367051 9.1412735 0.22291648 5
-3.5184805 10.952204 0.5364548 9
-3.431953 10.682864 0.78462076 9
-1.5251492 4.7875781 -0.82551771 23
-1.5527974 4.8743677 -0.71896833 21
-1.5327231 4.8113527 -0.59051019 7
-1.8199795 5.7130761 -0.55939531 20
-2.0384147 6.3987637 -0.46960059 25
-1.944755 6.1047573 -0.29878613 24
-3.4945581 10.969727 -0.26729554 6
-3.6733706 11.531034 0 10
-2.938633 9.2246275 0.22477335 2
-3.5171745 11.04072 0.54036778 8
-3.3876684 10.63419 0.78043544 9
-1.4961023 4.7450275 -0.81741172 21
-1.5252267 4.8373981 -0.71284467 18
-1.5244151 4.8348241 -0.59283316 7
-1.9623057 6.2236342 -0.60881382 22
-1.7338468 5.4990559 -0.4031924 4
-2.1663373 6.8707395 -0.3359597 2
-2.7224598 8.6345339 -0.21019699 6
-3.5771985 11.345417 0 10
-3.4722183 11.012463 0.2680847 10
-3.4567676 10.963459 0.53608209 12
-3.3579032 10.649901 0.78085393 9
-1.5088574 4.7854815 -0.94538671 23
-1.4984767 4.8021994 -0.70699942 16
-1.733139 5.5542269 -0.6804108 14
-1.9746743 6.3282795 -0.6184746 12
-2.7231894 8.7270613 -0.42633155 4
-1.8999281 6.0887389 -0.14808488 3
-3.6310918 11.636635 0 10
-3.4073634 10.919648 0.26557794 10
-3.4135079 10.93934 0.53440511 9
-3.3381724 10.69791 0.7836442 9
-1.4906253 4.7770376 -1.0636762 19
-1.5221666 4.878119 -0.96279097 15
-1.4719938 4.7670217 -0.81968141 50
-1.5192829 4.9201665 -0.72370017 10
-1.7342354 5.6162858 -0.68737984 19
-1.7737557 5.7442713 -0.56088156 10
-1.9860877 6.4319043 -0.47071669 7
-1.7087914 5.533886 -0.27009073 4
-2.9071422 9.4147196 -0.22876562 3
-2.7214592 8.8133898 0 7
-3.3891094 10.97556 0.26669207 10
-3.3928263 10.987597 0.53626841 6
-3.3682258 10.907929 0.79829305 4
-3.5028591 11.343937 1.1076436 5
-1.4458548 4.6823711 -1.0416377 49
-1.4827523 4.8018627 -0.94686788 16
-1.4892871 4.8773232 -0.83783889 20
-1.5240632 4.9912124 -0.73344231 15
-1.6690139 5.4659171 -0.66833115 24
-1.9495586 6.3846836 -0.46681032 19
-1.6937327 5.5468698 -0.27046341 4
-3.5284047 11.555306 0 7
-3.3341768 10.919222 0.26506728 13
-2.6838343 8.7893906 0.42856759 5
-3.3438482 10.950896 0.80066484 9
-3.4741848 11.37774 1.1098729 3
-1.4378136 4.7087502 -0.92761207 23
-1.4959393 4.9454317 -0.84886307 13
-1.5258983 5.0444732 -0.74067926 11
-1.5966067 5.2782283 -0.64486867 8
-1.8392332 6.0803285 -0.59265059 40
-1.5273206 5.0491753 -0.36887223 6
-3.2968917 10.899207 -0.26437098 8
-5.0766706 16.782986 0 5
-3.2656307 10.795861 0.26186422 6
-2.6584978 8.7887383 0.42819491 4
-3.3405809 11.04364 0.80680341 7
-3.4622555 11.445884 1.1156322 4
-1.4232035 4.7049737 -0.92613083 18
-1.4543837 4.8569503 -0.83297527 14
-1.5089657 5.0392284 -0.73928756 10
-1.8410983 6.1483932 -0.59878147 35
-1.5149325 5.0591545 -0.36929077 5
-1.9078342 6.3712592 -0.3101525 19
-1.927747 6.4377584 -0.15602297 4
-1.8427825 6.1540174 0 5
-2.7118084 9.0561514 0.21948129 2
-5.9017353 19.70899 0.95943236 20
-3.2862647 10.974562 0.80108333 7
-3.4188561 11.417355 1.1119165 5
-1.4252824 4.7597656 -0.93612903 15
-1.4374386 4.8558187 -0.83200258 12
-1.4835712 5.0116596 -0.73455572 20
-1.4998519 5.0666575 -0.61792177 8
-1.6945955 5.7245212 -0.55698007 26
-1.6751559 5.6588526 -0.41267931 4
-1.7687232 5.9749331 -0.29058746 16
-1.8757315 6.3364182 -0.15342337 5
-3.2670934 11.036585 0 7
-3.2662132 11.033611 0.26715627 6
-5.6793089 19.185301 0.93306613 11
-3.24611 10.9657 0.79968822 9
-1.396376 4.7171049 -0.92687142 16
-1.3986223 4.7767248 -0.81773591 16
-1.4675803 5.012238 -0.73399895 12
-1.6854353 5.7562799 -0.55958104 27
-1.6617206 5.6752868 -0.4135164 4
-1.6690224 5.7002244 -0.27698508 10
-1.8456839 6.3035784 -0.15249494 4
-4.7393751 16.186424 0 9
-3.2289636 11.027904 0.26678491 6
-2.5627606 8.752615 0.42530671 2
-1.3918698 4.803359 -0.82162684 20
-1.4706666 5.0752878 -0.74262774 19
-1.4861252 5.1286359 -0.62442619 10
-1.6344383 5.6404657 -0.54787666 26
-2.209692 7.6256733 -0.3702451 5
-1.9171134 6.6159811 -0.15992239 4
-4.6830254 16.161175 0 4
-3.1864707 10.996549 0.26581004 3
-5.7071667 19.695499 0.95626473 16
-3.2444901 11.196774 1.0875789 3
-1.3629341 4.7562432 -0.81287235 28
-1.4550567 5.077724 -0.74234939 76
-1.4380699 5.018445 -0.61048806 7
-1.447095 5.0499401 -0.49009788 11
-1.4410454 5.0288286 -0.36580297 4
-1.7798052 6.2110014 -0.30130163 4
-2.7743361 9.6816244 -0.23382556 7
-4.6515851 16.232677 0 4
-5.4825773 19.132597 0.46208054 16
-5.7730846 20.146383 0.97732043 17
-3.2172906 11.227407 1.0896225 3
-1.457618 5.1408367 -0.75097811 28
-1.6518992 5.8260422 -0.56496882 7
-1.4335259 5.0558667 -0.36747709 4
-1.4441861 5.0934639 -0.24689218 4
-4.7289844 16.678537 0 15
-5.4323945 19.159376 0.46235904 16
-5.4862723 19.349398 0.9379108 3
-3.1940701 11.265086 1.0924093 3
-1.3589566 4.8476267 -0.82713896 37
-1.4044024 5.0097399 -0.73121554 12
-1.5367579 5.4818745 -0.66577584 18
-1.4269109 5.0900316 -0.24651952 6
-2.6931608 9.6069584 -0.23164375 19
-4.5563931 16.253422 0 13
-5.1547852 18.387987 0.44337264 7
-3.0312419 10.81295 0.52369094 8
-1.3291266 4.7412186 -1.0466275 36
-1.4290426 5.1529632 -0.75153476 22
-1.472072 5.3081226 -0.64417183 21
-1.5879821 5.7260814 -0.55437911 31
-1.6507086 5.9522657 -0.43193209 5
-2.5557618 9.2157831 -0.44598976 7
-1.8482562 6.6645999 -0.16057229 3
-4.5115161 16.268009 0 13
-5.0964637 18.377264 0.44276914 7
-2.9999638 10.817525 0.52350461 5
-1.4294565 5.2144828 -0.75988513 19
-1.3570584 4.9503837 -0.60026681 13
-1.528869 5.5771275 -0.53951639 13
-1.5402073 5.6184878 -0.40737781 3
-2.6509469 9.67033 -0.46760446 3
-2.6229818 9.5683174 -0.23034395 7
-1.848532 6.7432184 0 3
-2.9863427 10.893813 0.52676547 5
-1.4216639 5.1860561 -1.0131524 28
-1.3744066 5.0726452 -0.86345392 13
-1.3751339 5.0753298 -0.73900926 14
-1.3537942 4.9965696 -0.6053775 7
-1.5138779 5.5874047 -0.54007375 18
-1.5308357 5.6499929 -0.40933099 5
-1.9190085 7.0826569 -0.34220189 8
-1.7312902 6.3898277 -0.15370189 4
-2.5921433 9.5670557 0 3
-5.1781836 19.111586 0.45971304 16
-5.0078125 18.482782 0.89300436 6
-1.3795438 5.0916061 -0.99389648 23
-1.3331623 4.975431 -0.84626919 20
-1.5316499 5.716197 -0.83169854 22
-1.4128414 5.2727976 -0.63836426 12
-1.5467149 5.7724204 -0.55753744 7
-1.7223803 6.4280124 -0.31033882 2
-2.3603108 8.8088026 -0.2117289 4
-2.5586846 9.5491438 0 5
-5.1382432 19.176189 0.46092001 25
-4.9442811 18.452312 0.89086151 3
-1.3169549 4.9149437 -1.0815567 16
-1.3439536 5.0157046 -0.97834378 11
-1.3152202 4.9638724 -0.84367526 12
-1.3614806 5.1384668 -0.6216386 4
-1.6525539 6.2370286 -0.45118487 12
-1.6476274 6.2184353 -0.2999973 4
-1.6894296 6.3762045 -0.15314484 4
-1.8568757 7.0081749 0 5
-2.5600057 9.661911 0.23206154 6
-4.8512907 18.309622 0.88331509 3
-1.3037266 4.9204931 -1.0819726 18
-1.3591391 5.1296296 -0.99982136 28
-1.342968 5.1300354 -0.87123567 38
-1.3898596 5.3091578 -0.7712974 11
-1.3759083 5.2558651 -0.63534439 10
-1.6042182 6.1279917 -0.59097856 20
-1.6448522 6.2832103 -0.30288547 4
-1.6780971 6.4102035 -0.15384115 5
-1.8264481 6.9768929 0 5
-4.978591 19.017839 0.45641711 24
-1.3005149 4.9678683 -1.0915365 21
-1.3498846 5.1564565 -1.0042651 28
-1.3925216 5.388361 -0.91435981 64
-1.3394771 5.183105 -0.75236982 10
-1.4493541 5.608274 -0.67739093 26
-1.4529214 5.6220779 -0.54174584 7
-1.4681563 5.6810298 -0.41030759 13
-1.6484466 6.3786621 -0.15295915 1
-2.7973595 10.824379 0 7
-4.9273295 19.066298 0.45720631 8
-1.2800076 4.9529881 -1.0873781 36
-1.3213853 5.1130986 -0.9950074 38
-1.4145932 5.5375509 -0.9390021 73
-1.2946066 5.0678525 -0.73511237 4
-1.5369374 6.0164781 -0.72617424 27
-1.4382026 5.629972 -0.54211742 10
-1.4399419 5.6367803 -0.40681976 7
-1.9259827 7.5394306 -0.36288494 6
-2.0859849 8.1657734 0 4
-5.1497178 20.159027 0.48306307 27
-5.0367293 19.716724 0.94899768 3
-1.2350186 4.8345904 -1.1823081 13
-1.2124264 4.746151 -1.0412219 59
-1.3105077 5.1300988 -0.9975996 28
-1.3363582 5.2967858 -0.89749926 55
-1.4194579 5.6261597 -0.67855245 26
-1.4156444 5.6110444 -0.53988796 10
-1.626246 6.4457846 -0.46485716 4
-1.9325486 7.6598449 -0.18341172 10
-2.5294783 10.025834 0 4
-4.8340621 19.160275 0.45878461 8
-1.2232232 4.8483644 -1.0628448 49
-1.3443209 5.3283467 -1.0353706 26
-1.3215942 5.3045568 -0.89814776 20
-1.3133502 5.2714672 -0.76350367 9
-1.4551077 5.8404474 -0.70387328 10
-1.3965865 5.6055579 -0.53895903 10
-1.7074424 6.8532572 -0.49387583 14
-1.753222 7.0370054 -0.33819571 10
-2.0852835 8.3698196 -0.20026276 4
-4.949769 19.867165 0.47535712 8
-1.2022145 4.8253956 -1.057023 18
-1.312354 5.2674689 -1.0227802 35
-1.3440434 5.4596171 -0.9237628 28
-1.3327098 5.4135795 -0.7835446 36
-1.2108635 4.9186292 -0.5923686 5
-1.3923501 5.6558433 -0.54341787 10
-1.6501422 6.7030163 -0.4827148 22
-1.7053854 6.9274192 -0.33269885 26
-1.6924403 6.874835 -0.16437887 5
-1.7172787 6.9757304 0 3
-4.9621339 20.156605 0.481949 18
-1.2215271 4.961946 -0.96279097 30
-1.2952116 5.3252788 -0.90041745 64
-1.3358423 5.4923325 -0.7944001 37
-1.216372 5.0011287 -0.60189295 5
-1.3520794 5.559092 -0.53375709 10
-1.5823816 6.5059824 -0.46820545 56
-1.699226 6.9863892 -0.16693205 5
-3.8545389 15.847986 0 8
-4.8368397 19.886728 0.47517142 26
-4.8569708 19.969498 0.95840752 12
-1.2048342 4.9536915 -1.0836358 27
-1.1951257 4.9137745 -0.95279276 11
-1.2609754 5.2523384 -0.88744783 41
-1.3556019 5.6464858 -0.81611115 15
-1.2571743 5.2365055 -0.62976915 4
-1.3397616 5.5805068 -0.53542918 10
-1.6753156 6.9781895 -0.50182807 96
-1.6724533 6.9662666 -0.33409637 10
-4.6978564 19.567972 0 28
-4.8338199 20.1343 0.48074204 18
-4.7920966 19.96051 0.95728952 16
-1.1682085 4.8659368 -1.0636762 15
-1.1846688 4.9344988 -0.95612544 11
-1.2753879 5.3868642 -0.90949613 59
-1.2913153 5.4541364 -0.78771985 32
-1.5950098 6.7368531 -0.48410994 16
-1.5465381 6.5321231 -0.31304064 7
-1.6256526 6.8662791 -0.1638218 2
-3.394562 14.337634 0 10
-4.7152672 19.915905 0.47517142 8
-4.7252264 19.95797 0.95645106 8
-1.124648 4.7501831 -1.2779068 34
-1.1285787 4.7667851 -1.0412219 20
-1.161464 4.905683 -0.94983029 13
-1.2167544 5.203999 -0.87804478 21
-1.2900559 5.5175056 -0.79634851 25
-1.5232127 6.5147057 -0.78239119 32
-1.4018306 5.9955606 -0.57444382 15
-1.5757343 6.7393384 -0.4839704 12
-1.5237404 6.516963 -0.31210899 10
-2.3939996 10.239018 -0.24413116 5
-1.6770253 7.172555 0 5
-4.7192607 20.184046 0.48125267 9
-5.079741 21.725803 1.0404875 5
-1.1126986 4.7589569 -1.2794262 35
-1.1312954 4.8384953 -1.0561916 31
-1.136572 4.8610625 -0.94057274 12
-1.2195324 5.2823725 -0.89069021 96
-1.2643969 5.4767017 -0.78994656 13
-1.3933009 6.0350456 -0.72431576 37
-1.389563 6.0188551 -0.57630163 22
-1.5385085 6.6640086 -0.47825038 27
-1.6484505 7.1402197 -0.34173605 5
-2.1144214 9.1585598 -0.21822791 1
-1.6533912 7.1616201 0 3
-3.1786034 13.768037 0.3280614 9
-4.988945 21.609482 1.0342454 15
-1.129622 4.8929276 -1.4399297 33
-1.1119645 4.8164444 -1.1712412 7
-1.1045781 4.784451 -1.0437168 12
-1.1296256 4.8929429 -0.94612724 10
-1.1420625 5.0146451 -0.84497219 11
-1.279227 5.6169162 -0.67367411 42
-1.3876189 6.0928502 -0.58298987 37
-1.5165153 6.6588173 -0.4775528 2
-1.7843064 7.8346524 -0.37471715 5
-2.3476117 10.308051 0 6
-4.5589824 20.017887 0.47665691 8
-4.879559 21.425497 1.0247424 14
-1.1402664 5.0067582 -1.3442587 19
-1.1012386 4.835393 -1.0541123 11
-1.1356165 4.986342 -0.96353161 26
-1.1696497 5.198606 -0.87545085 55
-1.292044 5.7425976 -0.827245 24
-1.2047783 5.3547382 -0.6418488 14
-1.4048816 6.2441139 -0.59710944 40
-1.4184939 6.3046145 -0.45188242 4
-1.5068053 6.6971221 -0.32012135 4
-1.7612778 7.8281465 -0.18628985 4
-2.3096385 10.265382 0 6
-2.3419335 10.408918 0.24770564 9
-4.8357224 21.492773 1.027351 15
-1.065562 4.7359791 -1.3919687 37
-1.0876561 4.8341784 -1.2971539 21
-1.0893183 4.8415661 -1.1758524 13
-1.1346365 5.0429869 -0.97390008 13
-1.0905218 4.9190211 -0.82778746 3
-1.2452773 5.6170778 -0.80859578 70
-1.1999897 5.4127984 -0.64835322 17
-1.3150052 5.9315996 -0.56682664 10
-1.7313684 7.809691 -0.37304011 5
-1.7050862 7.6911402 -0.18290108 2
-2.2886345 10.323354 0 4
-2.3031645 10.388894 0.24705571 6
-4.8114228 21.702906 1.0366677 15
-1.0481825 4.7280416 -1.388661 31
-1.0980096 4.9527969 -1.3280506 19
-1.0989554 4.9570627 -1.2030584 32
-1.0987955 4.9563417 -0.95649582 30
-1.2240824 5.5953813 -0.8049773 67
-1.2621326 5.7693124 -0.69063205 9
-1.3090736 5.9838834 -0.57147127 12
-1.4825354 6.7767916 -0.48508653 7
-2.2439795 10.257416 0 6
-4.1504569 18.972082 0.45089293 8
-1.0489434 4.7948065 -1.4074044 33
-1.1102229 5.0749207 -1.3599603 15
-1.1491569 5.2528911 -1.2740706 8
-1.1945779 5.4605141 -1.0531452 15
-1.1794972 5.4692521 -0.91922337 24
-1.2751149 5.9126248 -0.85006934 31
-1.2353785 5.7283697 -0.68528914 9
-1.4004631 6.4938569 -0.61977506 30
-1.4535903 6.7402043 -0.48215672 5
-1.5456864 7.1672473 -0.17022797 3
-2.2114291 10.254253 0 8
-4.3786721 20.303617 0.4822275 9
-4.6838136 21.71854 1.0361086 5
-1.020519 4.7320805 -1.2672702 63
-1.0818734 5.0165772 -1.2159697 14
-1.2003318 5.5658607 -1.0727713 13
-1.1340212 5.3397264 -0.89685071 22
-1.196053 5.6318135 -0.80915242 88
-1.5269005 7.1896634 -0.34276089 6
-1.6124682 7.5925732 -0.18020862 3
-2.1821136 10.274843 0 6
-4.6118288 21.715559 1.0352702 20
-1.094005 5.1513033 -1.2477869 14
-1.189374 5.6003642 -1.0786961 12
-1.162204 5.5438213 -0.79607022 63
-1.2325253 5.879261 -0.70247948 10
-1.4018528 6.6869688 -0.63742453 14
-1.2698318 6.0572157 -0.43276918 4
-1.4186378 6.7670345 -0.16052587 3
-4.3067141 20.543427 0 23
-4.6013422 21.948832 0.52066457 10
-4.5611038 21.756891 1.0366677 10
-0.99720001 4.7567372 -1.3936225 14
-1.0242114 4.8855839 -1.3067775 11
-1.1000794 5.2474813 -1.2703817 14
-1.0367938 4.9456034 -1.0740719 24
-1.1630118 5.5476747 -1.0679573 19
-1.1427815 5.537746 -0.79467845 22
-1.2701631 6.1550179 -0.58633393 12
-1.2721682 6.1647344 -0.44016334 4
-1.4499333 7.0261574 -0.33456218 25
-2.1211133 10.278594 -0.24366693 7
-3.4260628 16.602182 0 4
-4.5024662 21.81827 0.51722938 10
-0.9989599 4.8408084 -1.4173274 22
-1.0417053 5.047946 -1.3493236 14
-1.0780832 5.2242274 -1.263926 12
-1.0157173 4.9220123 -1.0682503 40
-1.1396204 5.522428 -1.0624028 30
-0.98561889 4.8444762 -0.81222385 6
-1.1600841 5.7020016 -0.81778121 37
-1.2178129 5.9857473 -0.7143268 20
-1.2303386 6.0473132 -0.57574427 37
-1.2390356 6.0900602 -0.43458286 5
-1.4784994 7.2670636 -0.34583539 11
-2.0581167 10.115977 -0.23967469 7
-3.3888531 16.656761 0 4
-0.96435553 4.7399635 -1.3870072 41
-1.0437008 5.1299586 -1.2404089 13
-1.0043072 4.9363322 -1.0707452 49
-1.1900221 5.8491516 -1.1246139 33
-1.1702497 5.8353238 -0.83643037 21
-1.1663303 5.8157806 -0.69365197 23
-1.3497108 6.7301874 -0.64039707 28
-1.4444523 7.2026057 -0.34257457 5
-1.4255816 7.1085086 -0.16832469 5
-2.1491733 10.71662 0 6
-4.745779 23.664314 0.56035501 11
-0.94846994 4.7294431 -1.3831483 27
-1.0113868 5.0431714 -1.2187364 9
-0.97820991 4.877738 -1.057439 14
-1.1164882 5.5672483 -1.0698088 23
-0.99467158 5.0419254 -0.84432369 46
-1.1453962 5.8059387 -0.83169854 22
-1.1342137 5.7492552 -0.68528914 16
-1.3825215 7.0079112 -0.66640681 14
-1.4133322 7.1640887 -0.51061738 18
-1.4210455 7.2031875 -0.34238821 37
-1.4756119 7.4797807 -0.17700553 2
-2.1139493 10.715471 0 9
-1.0283095 5.2124338 -1.2588537 14
-0.98749369 5.0055413 -1.0844674 36
-1.0468781 5.3065572 -1.0190772 44
-1.0899445 5.6124978 -0.93932635 50
-1.0960726 5.644053 -0.80803907 25
-1.1326779 5.8325467 -0.69481355 14
-1.1639378 5.993515 -0.5696134 10
-1.3033102 6.7111912 -0.31881699 4
-1.457988 7.5076799 -0.17756259 1
-1.6227107 8.3558941 0 4
-4.6175332 23.777262 0.56235117 12
-0.92211646 4.7482939 -1.2662572 10
-0.98649907 5.0798221 -1.2261143 13
-0.96331501 4.9604392 -1.0740719 54
-1.0281322 5.2942047 -1.0161148 19
-1.130262 5.908216 -0.98828673 46
-1.102264 5.7618618 -0.82446152 24
-1.1287042 5.9000721 -0.70247948 15
-1.139714 5.957624 -0.56589776 10
-1.1819867 6.178596 -0.43988433 4
-1.4140726 7.3917785 -0.35095957 10
-1.5538579 8.1224775 -0.1919997 5
-3.2141511 16.801323 0 4
-0.92739463 4.8477674 -1.2920889 14
-0.98181796 5.1322541 -1.2381034 29
-0.92409688 4.8305292 -1.0453801 7
-0.99451083 5.1986036 -0.99722922 17
-1.1046219 5.862864 -0.98018074 31
-1.0549982 5.599483 -0.80080205 51
-1.0699251 5.6787081 -0.6757648 42
-1.122245 5.9564004 -0.42384034 4
-1.4026707 7.4447813 -0.35328874 10
-1.5359799 8.1523294 -0.19260319 5
-3.7023053 19.650267 0 14
-3.799042 20.163702 0.47637838 8
-0.88479704 4.6961274 -1.491161 19
-0.9162401 4.8630137 -1.4189812 15
-1.0298172 5.4658332 -1.3178768 13
-0.91857105 4.8753858 -1.0545281 12
-0.95123982 5.0487776 -0.9679752 30
-1.0303953 5.5595183 -0.92895067 22
-1.0741094 5.7953787 -0.82835835 22
-1.0465535 5.6467004 -0.67158335 31
-1.1307808 6.1011505 -0.5789026 10
-1.3681947 7.3821216 -0.35012105 10
-1.8455476 9.9576883 -0.23512536 7
-2.5840986 13.942554 0 6
-4.3914199 23.693993 0.55947304 11
-0.89584982 4.8335757 -1.4096096 14
-0.91548038 4.9394927 -0.94649762 5
-0.97944409 5.3682241 -0.89652652 3
-1.0692979 5.8607035 -0.83726543 28
-1.0767766 5.9016933 -0.7015503 17
-1.1208884 6.1434646 -0.5826183 10
-1.1133448 6.102119 -0.43374577 7
-1.2891259 7.065556 -0.33493489 5
-1.2776183 7.0024838 -0.16526087 5
-1.6308383 8.9384432 0 6
-3.8249595 20.964178 0.49476138 9
-0.85910493 4.7086587 -1.4935441 16
-0.88787037 4.8663192 -1.41843 20
-0.90569508 4.9640141 -1.3209594 11
-0.94595432 5.1846704 -1.1202283 27
-0.89991999 4.9323616 -0.94464606 5
-1.064507 5.9400635 -0.84812093 78
-1.0652399 5.9441528 -0.70619631 60
-1.245779 6.9515805 -0.32934484 3
-1.2556144 7.0064631 -0.16526087 5
-0.84329855 4.7056966 -1.4917568 20
-0.90174407 5.0318289 -1.4658395 22
-0.87883395 4.9039879 -1.3042449 8
-0.86340594 4.8178978 -1.0403901 4
-0.88268763 4.9254913 -0.9427945 5
-0.99907726 5.6660504 -0.80859578 16
-1.1114148 6.3031483 -0.74847513 30
-1.4792638 8.3893242 -0.39726353 6
-1.448877 8.2169914 -0.19371732 2
-1.9636132 11.136207 0 7
-0.88935673 5.0437942 -1.4685959 27
-0.88999671 5.0474234 -1.3417262 10
-0.91536021 5.2773976 -0.87999028 2
-0.94398934 5.4424548 -0.77630758 4
-1.0238767 5.9030361 -0.70062101 7
-1.1616592 6.6974039 -0.47532061 3
-1.2356136 7.1237788 -0.33717087 5
-1.7033893 9.8206825 -0.23141164 7
-2.3775265 13.707338 0 3
-0.88972557 5.1296039 -1.4928521 13
-0.92020655 5.3053384 -1.4095976 22
-0.94148678 5.4280267 -1.0379628 12
-0.90194505 5.287715 -0.88128722 4
-0.92545551 5.4255466 -0.77352411 3
-1.148864 6.7352943 -0.31863067 4
-1.6739379 9.8135757 -0.2311331 7
-1.5015359 8.8028574 0 4
-15.105546 88.557304 4.1894345 63
-0.80994439 4.7483544 -1.503076 16
-0.86860746 5.0922709 -1.4812752 18
-0.93043619 5.4547462 -1.4485983 16
-0.98267174 5.7609806 -1.3847392 16
-0.88931024 5.2136426 -0.99648869 35
-1.0546956 6.3026118 -0.5961805 5
-1.397841 8.3531675 -0.59223247 17
-1.2981743 7.7575831 -0.36679795 5
-1.6457415 9.8345633 -0.2315045 7
-1.4761859 8.8213387 0 1
-3.6904607 22.053322 0.51913267 10
-0.79975063 4.7791214 -1.5120122 12
-0.83578902 4.9944782 -1.4520576 18
-0.89637142 5.3565044 -1.4217536 24
-0.96713901 5.7793946 -1.388428 16
-0.90342349 5.3986459 -1.163474 14
-0.85151815 5.0884719 -0.97204858 32
-0.85939109 5.2308073 -0.87091148 2
-1.065363 6.4844851 -0.92355275 10
-1.0453639 6.3627577 -0.75405037 25
-1.0434548 6.3511376 -0.45006877 4
-1.2894038 7.8481417 -0.37089729 6
-1.3316249 8.1051264 -0.19069991 1
-3.0906692 18.811802 0 18
-0.81504536 4.9608908 -1.4415834 20
-0.90180504 5.488966 -1.4561958 16
-0.93421268 5.6862197 -1.3653721 18
-0.91055477 5.5422225 -1.1938291 49
-0.83641756 5.0909758 -0.97204858 12
-0.96796352 6.0029426 -0.99898666 7
-1.0628266 6.5912476 -0.93830508 31
-1.0061808 6.2399511 -0.58967805 10
-1.3871427 8.6025333 -0.2023053 6
-1.3766915 8.5377188 0 4
-3.2326343 20.047571 0.47145769 8
-14.129162 87.623703 4.1390309 63
-0.84378022 5.2328048 -1.5198646 22
-0.89721745 5.5642023 -1.4754429 16
-0.91950411 5.7024159 -1.3685999 15
-0.91715056 5.68782 -1.2246 27
-0.92393124 5.7298713 -1.0935084 20
-1.04008 6.5668035 -0.93440825 92
-1.0767537 6.7983527 -0.80492437 25
-1.0052631 6.3469787 -0.59952462 27
-1.214096 7.6654973 -0.54270536 15
-1.3326254 8.4138622 -0.39726353 12
-1.3496662 8.5214539 -0.20030917 4
-1.3500299 8.5237503 0 4
-3.8075287 24.039782 0.56509006 12
-0.79788721 5.0376596 -1.4625319 29
-0.80086392 5.0564537 -1.3402066 26
-0.92610598 5.8472004 -1.4027226 16
-0.91473001 5.7753758 -1.2428962 19
-0.88794309 5.6062498 -1.0694386 9
-0.97233158 6.2520175 -1.0395168 23
-1.0269099 6.6029525 -0.93914014 100
-1.0284568 6.6128983 -0.78262347 42
-0.99885583 6.4225664 -0.60639858 77
-1.0353957 6.657515 -0.47113523 7
-1.2836391 8.2537012 -0.38953066 28
-1.4573725 9.3707943 -0.22017761 3
-1.3203795 8.4899387 0 4
-0.73379016 4.7182145 -1.4899696 16
-0.7979961 5.1310534 -1.4889932 27
-0.76503378 4.9191089 -1.303232 11
-0.90917391 5.8459187 -1.4018005 12
-0.92595446 5.9538164 -1.2807361 100
-0.88526988 5.6922174 -1.0853617 12
-1.0198443 6.6959767 -1.1127954 41
-1.0628225 6.978157 -0.99202591 63
-0.93708968 6.1526356 -0.72780031 22
-0.95318872 6.258337 -0.59060699 7
-1.1857091 7.7849927 -0.55065763 54
-1.153623 7.5743251 -0.35729492 10
-1.4231111 9.3436995 -0.21943487 4
-1.748557 11.480474 0.2696166 10
-0.72356439 4.7506957 -1.4995016 19
-0.76161009 5.0004921 -1.4504038 37
-0.75598627 4.9635677 -1.3143749 14
-0.89432138 5.8718328 -1.4073339 12
-0.89134037 5.8522601 -1.2582817 32
-0.89875305 5.9009295 -1.1246139 12
-0.98595726 6.5893221 -1.0946379 96
-1.0146565 6.7811246 -0.96363461 23
-1.0585537 7.0744967 -0.83651733 17
-0.93768632 6.2667193 -0.59116435 32
-1.0628759 7.1033831 -0.50224662 10
-1.1314256 7.5615125 -0.35654959 7
-1.3190532 8.8154593 -0.20694746 4
-1.6020545 10.706806 0 9
-1.7238232 11.520607 0.2704522 3
-0.72355664 4.8356538 -1.5257145 15
-0.77469099 5.1773934 -1.501121 22
-0.74184465 4.9578757 -1.312349 9
-0.88470674 5.9126472 -1.4165562 14
-0.86183184 5.7597709 -1.2379063 18
-0.88737416 5.9304743 -1.1297982 12
-0.83815742 5.7174225 -0.94937783 6
-0.96867585 6.6077433 -0.93858349 18
-1.0263195 7.0009546 -0.82745767 35
-1.0652263 7.2663546 -0.34248137 21
-1.3033295 8.8905554 -0.20861866 6
-1.5978355 10.899505 0 9
-0.70643508 4.8188896 -1.519757 16
-0.75291073 5.1359191 -1.4884417 24
-0.73161983 4.990685 -1.320453 14
-0.84259975 5.7477255 -1.376439 16
-0.83679157 5.7081056 -1.2262633 11
-0.85181254 5.8105698 -1.106469 5
-0.82131296 5.7278414 -0.95067477 15
-0.98108482 6.8420906 -0.97142833 22
-0.94313747 6.577446 -0.77704823 50
-0.97739804 6.8163791 -0.64244068 19
-1.0282421 7.1709661 -0.50657153 15
-1.0384246 7.2419786 -0.34117705 23
-1.2995169 9.0628386 -0.21256447 4
-1.5669943 10.928227 0 11
-0.69075149 4.8173046 -1.5185655 16
-0.75369155 5.256249 -1.5226208 14
-0.73873198 5.1519208 -1.3624928 22
-0.8245396 5.7503438 -1.376439 15
-0.8185783 5.7087698 -1.2258475 9
-0.93119359 6.4941492 -1.2360754 16
-0.80136555 5.6947937 -0.9448384 10
-0.95792639 6.8073721 -0.96613973 25
-0.93089813 6.6152997 -0.78122962 37
-0.92541975 6.5763679 -0.61958927 9
-0.97360253 6.9187727 -0.48857433 13
-1.0447963 7.4247012 -0.34965524 41
-1.0216888 7.2604909 -0.17022797 2
-1.6105621 11.445237 0 7
-1.6184868 11.501554 0.26966304 3
-0.67334956 4.7850661 -1.5078421 18
-0.72948104 5.1839566 -1.501121 18
-0.71580648 5.0867801 -1.3447652 21
-0.83172053 5.9105072 -1.4142506 12
-0.8213501 5.8368115 -1.252876 32
-0.88735032 6.3058329 -1.1997857 34
-0.79496253 5.7733955 -0.95748383 11
-0.79156619 5.7487297 -0.81555444 37
-0.94378024 6.8541803 -0.80910581 17
-1.0357425 7.5220542 -0.70839399 29
-0.88992912 6.463088 -0.45620733 10
-1.0197623 7.4059978 -0.3486304 28
-1.0571427 7.6774721 -0.17993009 5
-1.0732509 7.7944574 0 5
-1.1817852 8.5826855 0.20114477 2
-0.66852313 4.8551326 -1.529289 18
-0.70989931 5.1556258 -1.4923006 13
-0.81417829 5.9129496 -1.4142506 14
-0.80829614 5.8702307 -1.2595291 25
-0.84959984 6.1701975 -1.1734941 16
-0.75694734 5.6132588 -0.93057185 3
-0.90791249 6.7327638 -0.79447079 17
-1.0352259 7.6768756 -0.72269928 22
-1.140641 8.4585981 -0.59683639 65
-0.96250045 7.1375694 -0.33586654 6
-1.0268824 7.6150041 -0.17839818 3
-1.0482744 7.7736392 0 5
-0.66261768 4.913743 -1.5471615 15
-0.69190323 5.1309147 -1.4845829 14
-0.76329076 5.6602998 -1.4951966 20
-0.80676687 5.9827032 -1.4303899 12
-0.82092112 6.0876665 -1.3056855 15
-0.84681344 6.279675 -1.1938608 28
-0.72448176 5.488173 -0.90949613 2
-0.88182944 6.6801305 -0.78796637 7
-0.99033004 7.5020566 -0.70597875 18
-1.1039617 8.3628511 -0.58986074 42
-1.1258501 8.5286617 -0.40117651 10
-1.3907993 10.535735 0.24673076 3
-0.65164262 4.9363942 -1.5537148 13
-0.68688256 5.2033477 -1.50498 14
-0.74697584 5.6585727 -1.4941835 18
-0.78470927 5.9444156 -1.4207063 12
-0.80187076 6.074419 -1.302359 23
-0.85293925 6.4612784 -1.2279288 22
-0.88686043 6.8848948 -0.97560352 33
-0.86066598 6.681541 -0.6285069 9
-1.0840535 8.4157486 -0.59334856 8
-1.1000694 8.5400839 -0.40154919 13
-1.1032672 8.564908 -0.20049487 9
-1.1068861 8.5930033 0 6
-1.3584567 10.546001 0.24687004 6
-0.62515372 4.8532071 -1.5269061 16
-0.67396951 5.2321754 -1.5126979 12
-0.73067665 5.6724052 -1.4972225 16
-0.76801783 5.9622931 -1.4243953 14
-0.78728044 6.1118331 -1.3098438 21
-0.81129128 6.2982345 -1.196453 31
-0.85745841 6.8161783 -1.1286831 13
-0.87780112 6.9778881 -0.98840743 93
-0.87373376 6.9455557 -0.81863016 25
-0.84680408 6.7314839 -0.63296568 9
-1.0301939 8.1893015 -0.57716507 11
-1.0580202 8.4105005 -0.39530697 6
-1.3166806 10.466664 -0.24492031 7
-1.7895806 14.22588 0 10
-1.8320229 14.563266 0.34078091 5
-0.62433499 4.9630146 -1.5608637 14
-0.65820342 5.232244 -1.5121466 14
-0.71456861 5.6803069 -1.498742 16
-0.73866576 5.8718619 -1.4022616 16
-0.75840038 6.028738 -1.2915475 15
-0.7943188 6.3142638 -1.1990451 12
-0.83482349 6.7991047 -1.1254407 17
-0.86095327 7.0119147 -0.99286097 70
-0.85311997 6.9481177 -0.81863016 25
-0.89162242 7.2616959 -0.68257004 72
-0.86413562 7.0378332 -0.49582902 4
-1.0357369 8.4354162 -0.39633182 6
-1.1971633 9.7501316 -0.22806928 7
-1.0417372 8.4842854 0 4
-1.7861201 14.546808 0.34027028 10
-0.61356068 4.9970603 -1.5709915 12
-0.64197171 5.2284498 -1.5104928 14
-0.69747424 5.6804824 -1.4982356 14
-0.71649516 5.8353963 -1.3930392 14
-0.74765998 6.0892134 -1.3040222 30
-0.78563863 6.3985257 -1.2145978 11
-0.81676328 6.8191872 -1.128359 60
-0.85169041 7.110795 -1.0065 70
-0.83959246 7.0097885 -0.82559919 100
-0.83786976 6.9954062 -0.65730339 21
-0.83684856 6.9868798 -0.49206218 5
-1.3299288 11.103625 -0.25963598 2
-1.7217859 14.375256 0 10
-1.4880555 12.423831 0.29050633 7
-0.59986997 5.0083365 -1.5739703 12
-0.63240367 5.2799621 -1.5248259 13
-0.67900991 5.6690788 -1.4946901 14
-0.70728236 5.9051266 -1.4091784 14
-0.72889566 6.0855775 -1.3027748 30
-0.76455098 6.3832645 -1.2112651 8
-0.78031051 6.6625304 -1.1020954 96
-0.83376044 7.1189022 -1.0073349 63
-0.78449512 6.6982598 -0.78866333 22
-0.8216356 7.0153766 -0.65897542 35
-0.82156891 7.0148072 -0.49387583 2
-0.88333631 7.5421963 -0.35412723 3
-0.8856861 7.5622597 -0.17677343 5
-0.89220637 7.6179314 0 1
-2.343533 20.009804 0.46774396 8
-10.347653 88.35144 4.1483474 63
-0.5885312 5.0250602 -1.5787362 12
-0.61477512 5.2491388 -1.5154543 13
-0.65516162 5.5939708 -1.47443 20
-0.69996816 5.9765429 -1.4257786 17
-0.71227658 6.081636 -1.3015273 25
-0.74714917 6.3793888 -1.2101542 9
-0.77933556 6.829525 -1.1293316 18
-0.79399848 6.9580197 -0.98423225 70
-0.795699 6.9729223 -0.82072091 47
-0.8003667 7.0138264 -0.65860385 21
-0.79826498 6.995409 -0.49234122 4
-0.91871512 8.0509453 -0.37788481 6
-0.91515857 8.0197783 -0.18740398 1
-1.2061036 10.569407 0 2
-1.6589375 14.53771 0.33971322 5
-10.12897 88.762856 4.1662359 63
-0.57340342 5.0248871 -1.5781405 12
-0.60312235 5.2853217 -1.5253773 13
-0.62474233 5.4747829 -1.4425201 16
-0.70032626 6.1371455 -1.4635904 19
-0.70265836 6.1575818 -1.3173286 22
-0.7291103 6.3893881 -1.2116354 11
-0.75557953 6.8004236 -1.1241437 22
-0.83633566 7.5272508 -1.0643959 20
-0.8460775 7.6149302 -0.8959865 35
-0.77889097 7.0102324 -0.65804648 9
-0.77640206 6.9878321 -0.49164364 4
-0.9865976 8.8796492 -0.41664219 4
-1.2026806 10.824456 -0.2528584 8
-1.1859989 10.674315 0 4
-2.2561026 20.305544 0.47433585 8
-9.8432522 88.591972 4.1568255 63
-0.55827945 5.0246687 -1.5775448 12
-0.58892244 5.3004637 -1.5292362 14
-0.61084414 5.4977655 -1.4480917 18
-0.67738414 6.0966434 -1.4534458 15
-0.70879495 6.3793492 -1.3643166 25
-0.71969724 6.4774733 -1.2279288 21
-0.77275544 7.1598744 -1.1831557 18
-0.80354697 7.4451699 -1.0524271 16
-0.81426489 7.5444756 -0.88739139 15
-0.95762622 8.8727732 -0.41617635 6
-1.1522461 10.676001 0 6
-2.1770704 20.171389 0.47103989 17
-9.5668306 88.640343 4.1576643 63
-0.54003382 5.0036197 -1.5703958 13
-0.56834894 5.2659702 -1.5187619 14
-0.61101013 5.661242 -1.490638 16
-0.65446991 6.0639138 -1.4451456 20
-0.69231999 6.4146094 -1.3713856 35
-0.71727186 6.6457977 -1.2594047 17
-0.72462672 6.8712678 -1.135168 36
-0.78036869 7.3998404 -1.0457468 17
-0.80666232 7.6491694 -0.89947104 57
-0.94935411 9.002243 -0.42213905 6
-1.1111758 10.536716 -0.24598803 7
-1.1295139 10.710608 0 8
-2.1298759 20.196533 0.47150412 26
-0.52460313 4.9745455 -1.5608637 12
-0.55810201 5.2921987 -1.5259285 14
-0.59839362 5.6742635 -1.493677 16
-0.64863235 6.1506515 -1.4654348 21
-0.68485177 6.494102 -1.3880185 24
-0.71360564 6.7667603 -1.2819932 21
-0.69840068 6.8164535 -1.125765 71
-0.74912155 7.3114939 -1.0329429 30
-0.77889919 7.6021261 -0.89366353 20
-0.78751421 7.6862097 -0.72084147 13
-0.8896668 8.6832275 -0.61036915 33
-0.92569137 9.034831 -0.42353654 4
-1.088464 10.623507 -0.24793772 7
-1.1015999 10.751715 0 6
-2.0727894 20.230612 0.47215402 8
-0.51528823 5.0292597 -1.5775448 12
-0.54984194 5.3665066 -1.546877 14
-0.58017302 5.6625409 -1.4901315 18
-0.61827862 6.0344548 -1.4373065 22
-0.65261793 6.3696094 -1.36099 13
-0.63102186 6.1588302 -1.1664582 19
-0.68656975 6.9029408 -1.1397073 36
-0.74212378 7.4614949 -1.0538188 33
-0.75633752 7.6044035 -0.89366353 12
-0.81496054 8.1938143 -0.76821637 38
-0.8536287 8.582593 -0.60311449 12
-1.1337172 11.398672 -0.26594931 14
-1.0799839 10.858425 0 6
-2.0137382 20.24662 0.47238615 8
-0.50149608 5.0421653 -1.5811192 12
-0.53829151 5.4121156 -1.5595562 13
-0.5698784 5.7296972 -1.5073526 14
-0.62059367 6.2396011 -1.485724 15
-0.63913542 6.4260244 -1.3726331 23
-0.59679288 6.0003023 -1.1360933 9
-0.67640734 6.9991221 -1.1552709 41
-0.72357547 7.4871936 -1.0571589 35
-0.7356773 7.6124172 -0.89436042 12
-0.73001736 7.5538516 -0.70802236 9
-0.8041386 8.3208199 -0.5845592 15
-1.011107 10.462424 -0.24403833 5
-1.2435907 12.868049 0 11
-0.48521325 5.0207419 -1.5739703 12
-0.52410412 5.4231653 -1.5623126 13
-0.55927694 5.7871156 -1.5220412 14
-0.61290568 6.3420386 -1.5097022 13
-0.62476778 6.4647813 -1.3805338 21
-0.58684462 6.0723724 -1.1494243 19
-0.67553562 7.2271848 -1.1925586 25
-0.634983 6.793335 -0.95890272 27
-0.7332015 7.844121 -0.92130738 22
-0.82069761 8.7801933 -0.61664718 23
-1.0131143 10.838755 0 6
-1.9769294 21.150085 0.49318302 9
-0.46837017 5.0108356 -1.5703958 14
-0.50742048 5.4286137 -1.5634152 13
-0.5441528 5.8215923 -1.5306517 17
-0.57884961 6.1927943 -1.473735 21
-0.61847204 6.616693 -1.4125521 15
-0.6028825 6.4499092 -1.2205228 22
-0.63842148 7.0423226 -1.1617557 18
-0.67823458 7.4814939 -1.0557673 26
-0.70913923 7.8223982 -0.91851979 15
-0.70423245 7.7682724 -0.72771549 9
-0.84768993 9.350728 -0.65654796 24
-0.87859911 9.6916819 -0.45381579 7
-0.9769786 10.776891 -0.25123367 7
-0.99963254 11.026783 0 4
-1.3977727 15.418601 0.35944241 11
-0.4538568 5.0064197 -1.5686085 14
-0.48670292 5.3687401 -1.5457743 11
-0.51444143 5.6747189 -1.4916511 20
-0.57771677 6.3726988 -1.5161579 13
-0.60564226 6.6807404 -1.4258585 26
-0.58948028 6.5024605 -1.2301507 21
-0.62566537 7.122716 -1.1747253 22
-0.68434227 7.7907071 -0.91457069 45
-0.72017992 8.1986914 -0.76784486 33
-0.75279546 8.569994 -0.60157984 7
-0.78265947 8.9099722 -0.41710806 3
-0.98879409 11.256656 0 7
-1.8962235 21.587038 0.5031172 9
-1.8621595 21.199245 0.9924134 4
-0.43737176 4.9791389 -1.5596722 15
-0.4754132 5.4122114 -1.5579025 12
-0.50113583 5.7050433 -1.4992485 20
-0.55430305 6.3103113 -1.5009409 12
-0.57414937 6.5362458 -1.3946717 100
-0.59694922 6.7958045 -1.2853259 16
-0.61160934 7.2229719 -1.1909374 21
-0.6555531 7.7419386 -1.0919522 34
-0.6662305 7.8680353 -0.92339808 40
-0.71946907 8.4967718 -0.59627831 10
-0.79326272 9.3682585 -0.43844327 1
-0.91082126 10.756598 -0.25063017 7
-0.93317258 11.020563 0 4
-1.8209677 21.505228 0.50107467 9
-0.4226923 4.9919033 -1.5632467 15
-0.46051511 5.4385824 -1.5650691 12
-0.48027039 5.6718879 -1.4901315 18
-0.5384149 6.358562 -1.5120077 10
-0.5470081 6.4600453 -1.3780388 17
-0.58919269 6.9582362 -1.3156909 19
-0.60142463 7.3624444 -1.2136343 18
-0.62645346 7.668839 -1.0813751 34
-0.62606394 7.6640711 -0.89923877 32
-0.64689833 7.9191184 -0.74127769 6
-0.66680521 8.1628122 -0.57270062 58
-0.85627592 10.48225 -0.24417758 7
-0.92652524 11.34222 0 7
-1.4776458 18.088858 0.42136881 7
-7.0975466 86.885857 4.0653362 63
-0.41114444 5.0330963 -1.5757575 14
-0.44265568 5.4188466 -1.5590049 12
-0.46359801 5.6752157 -1.490638 18
-0.52224112 6.3931055 -1.5198468 13
-0.5315029 6.506485 -1.3876027 49
-0.57526672 7.0422277 -1.3312436 14
-0.58665925 7.4210477 -1.2230372 25
-0.61137015 7.7336326 -1.0902822 50
-0.62227958 7.8716331 -0.92339808 32
-0.61847544 7.8235121 -0.73217428 9
-0.77845156 9.8471584 -0.6907286 27
-0.63040584 7.9744282 -0.37304011 4
-0.83119577 10.514355 -0.2448739 11
-0.88138378 11.149217 0 2
-1.4258751 18.036854 0.42006901 7
-0.39631209 5.0132184 -1.5692042 18
-0.42907453 5.4276528 -1.56121 12
-0.46352991 5.863502 -1.5397688 19
-0.50719029 6.415791 -1.5249192 13
-0.55008161 6.9583526 -1.483658 16
-0.56286997 7.1201215 -1.3456855 14
-0.56837809 7.4719529 -1.2311432 18
-0.58901995 7.7433124 -1.0913956 26
-0.61941022 8.1428261 -0.95499104 22
-0.64011717 8.415041 -0.78735214 20
-0.76072919 10.000619 -0.70133162 13
-0.68765903 9.0400314 -0.42279121 1
-0.97909957 12.871336 -0.29969782 10
-0.98497629 12.948592 0 8
-1.3923657 18.304173 0.42619666 7
-0.37781408 4.9667802 -1.5543106 18
-0.41121706 5.4058986 -1.5545948 13
-0.45375997 5.9651718 -1.566107 12
-0.48741207 6.4075651 -1.5226135 13
-0.52809584 6.9423985 -1.4799156 19
-0.52504319 6.9022679 -1.3042114 22
-0.54375488 7.4579549 -1.2285494 17
-0.55821139 7.6562362 -1.0788699 17
-0.5919494 8.1189747 -0.95197117 17
-0.57979482 7.9522672 -0.74387866 13
-0.66141272 9.0717096 -0.6360395 5
-0.65853089 9.0321836 -0.42232537 4
-0.80722493 11.07162 -0.25773269 8
-0.94996667 13.029416 0 5
-1.5512038 21.27578 0.49527198 9
-0.36651334 5.0269713 -1.5727787 13
-0.39563093 5.4263382 -1.5601076 11
-0.43290836 5.9376225 -1.5585093 14
-0.47081882 6.4575891 -1.5341414 16
-0.50998306 6.9947524 -1.4907269 17
-0.49835572 6.8352761 -1.2912508 9
-0.5252701 7.4929123 -1.2340615 31
-0.54112017 7.7190113 -1.0874988 96
-0.55968714 7.9838672 -0.93594241 20
-0.56760973 8.0968819 -0.75725514 9
-0.62588936 8.9282331 -0.62585509 17
-0.63134706 9.0060863 -0.42102104 1
-0.78259277 11.163588 -0.25982165 4
-0.78965688 11.264357 0 7
-1.4694064 20.960897 0.48784453 9
-0.35006922 4.9936938 -1.5620553 14
-0.38101232 5.4350929 -1.5623126 10
-0.4178122 5.9600387 -1.5640808 14
-0.45455125 6.4841166 -1.540136 16
-0.49222437 7.0215187 -1.4961327 15
-0.48654848 6.9405532 -1.310877 38
-0.50938064 7.5691752 -1.2463826 20
-0.53246313 7.9121709 -1.1144983 31
-0.55473071 8.2430573 -0.96614158 100
-0.54419589 8.0865145 -0.75614041 9
-0.60095614 8.9299469 -0.62585509 8
-1.0368508 15.407151 0 11
-1.3258878 19.702116 0.45845965 8
-0.3315087 4.926075 -1.5406083 15
-0.36725408 5.4572358 -1.5683765 12
-0.40220731 5.9766259 -1.568133 12
-0.43905693 6.5241952 -1.5493584 16
-0.47235313 7.0189624 -1.495301 12
-0.49619901 7.3733015 -1.3923439 13
-0.48881808 7.6001959 -1.2512462 17
-0.4958894 7.7101412 -1.0858287 27
-0.55870044 8.6867342 -1.0179448 55
-0.55662453 8.654458 -0.80908877 38
-0.61991477 9.6385012 -0.67538214 19
-0.63075572 9.8070574 -0.45828778 7
-0.75293094 11.706651 -0.27235547 14
-1.0003703 15.553864 0 7
-1.0568241 16.431614 0.38228184 12
-0.31505173 4.898458 -1.531672 16
-0.35142908 5.464057 -1.5700305 14
-0.38335317 5.9604158 -1.5635744 14
-0.42144415 6.5526586 -1.555814 14
-0.45378345 7.0554733 -1.5027858 13
-0.47671446 7.4120073 -1.3993796 15
-0.47062659 7.6507759 -1.2593523 22
-0.47618565 7.7411475 -1.0900038 24
-0.53334826 8.6704149 -1.015854 35
-0.54089648 8.7931232 -0.82190794 27
-0.5819782 9.4609718 -0.66282606 16
-0.60116518 9.7728863 -0.45661077 1
-0.63873047 10.38357 -0.24153154 3
-0.6999318 11.378493 0 7
-1.2105557 19.679489 0.45776331 8
-0.30582899 4.9717317 -1.5543106 13
-0.33735308 5.4842057 -1.5755432 13
-0.36611694 5.951807 -1.561042 14
-0.40350673 6.5596371 -1.5571973 14
-0.43336299 7.0449977 -1.500291 12
-0.45794991 7.4446964 -1.4053044 20
-0.45161238 7.7151842 -1.2697279 15
-0.45876807 7.83743 -1.1033645 12
-0.51410359 8.7827616 -0.82079321 9
-0.54014438 9.2276344 -0.6463635 33
-0.51962817 8.877142 -0.4146857 6
-0.66014326 11.277652 -0.26228198 2
-0.93122816 15.90877 0 3
-0.28739309 4.9097209 -1.5346508 15
-0.32096571 5.4832635 -1.5749919 13
-0.34935868 5.9683189 -1.565094 17
-0.38210693 6.5277781 -1.5493584 16
-0.41051269 7.013052 -1.4932219 16
-0.43608657 7.4499469 -1.4060451 18
-0.43195736 7.7993269 -1.2833461 13
-0.45659733 8.2442207 -1.1604254 10
-0.54370111 9.8169479 -0.68751985 28
-0.85502678 15.438174 -0.35897818 3
-0.96939468 17.503178 0 5
-0.27070135 4.8877239 -1.5275018 18
-0.3014001 5.4420137 -1.5628638 14
-0.32932419 5.9462047 -1.5590159 17
-0.35600251 6.4279027 -1.5253803 23
-0.39204985 7.0787654 -1.5069441 16
-0.41539833 7.5003409 -1.4153028 28
-0.40747905 7.7492614 -1.2749158 16
-0.40107194 7.6274137 -0.89319897 10
-0.61116147 11.622807 -0.2702201 8
-0.86936235 16.533161 0 4
-1.2576004 23.916506 0.55603784 11
-0.25865379 4.9189668 -1.5370338 16
-0.28519076 5.4236355 -1.5573511 14
-0.31312254 5.9548302 -1.561042 17
-0.34520248 6.5649128 -1.5576586 14
-0.37587395 7.1482096 -1.5214978 12
-0.39331424 7.4798813 -1.4112294 16
-0.38526472 7.7662058 -1.2775098 23
-0.40959236 8.2566042 -1.1618172 49
-0.44536462 8.977706 -1.0511639 25
-0.52294445 10.541568 -0.49220055 12
-0.57894838 11.6705 -0.2712878 8
-0.81673139 16.463755 0 12
-0.98651057 19.886181 0.46226621 8
-0.26928619 5.4282985 -1.5584537 14
-0.29593042 5.9653955 -1.5635744 17
-0.32668477 6.5853453 -1.5622698 14
-0.3529163 7.1141229 -1.5140132 13
-0.37384373 7.5359797 -1.4215978 20
-0.36560732 7.8106213 -1.2846431 23
-0.40598255 8.6731739 -1.2202699 27
-0.41156304 8.7923918 -1.0293275 32
-0.44106802 9.422719 -0.88005823 16
-0.48239127 10.305525 -0.72142148 14
-0.51022774 10.900207 -0.5088774 44
-0.54682541 11.682057 -0.2715199 8
-0.55482805 11.853022 0 2
-0.9042393 19.317638 0.44898966 8
-0.22960362 4.9051175 -1.5322677 13
-0.25385773 5.4232683 -1.5567999 13
-0.27900034 5.9604001 -1.5620549 19
-0.30820388 6.5842876 -1.5618086 14
-0.33204359 7.093585 -1.509439 12
-0.35656697 7.6174879 -1.4367803 20
-0.37244233 8.4962635 -1.1952187 24
-0.38530129 8.7896051 -1.028863 40
-0.45373616 10.350761 -0.72449076 17
-0.47998571 10.949574 -0.51111341 8
-0.46838161 10.684858 -0.24830911 1
-0.51746947 11.804665 0 7
-0.86312157 19.689781 0.45757765 8
-0.21596946 4.9267583 -1.5388211 12
-0.23524059 5.3663769 -1.5402616 16
-0.26089168 5.9515371 -1.5595224 17
-0.28696319 6.546288 -1.5525862 13
-0.31125337 7.1004024 -1.5106865 12
-0.3351703 7.6460023 -1.4419646 22
-0.32207116 7.8480916 -1.2904794 11
-0.34229669 8.3409386 -1.1732293 43
-0.36946726 9.0030193 -1.0537192 30
-0.38580897 9.401227 -0.8778289 9
-0.42965308 10.469601 -0.73272198 13
-0.45808688 11.162464 -0.52098912 22
-0.44132626 10.754048 -0.24988744 7
-0.48622116 11.848028 0 7
-0.79525632 19.378464 0.45028946 8
-0.20119132 4.9025435 -1.5310763 13
-0.2163896 5.2728887 -1.5132492 31
-0.24315834 5.9251781 -1.5524313 14
-0.26891878 6.5528975 -1.5539696 14
-0.29053956 7.0797429 -1.5061125 13
-0.31566855 7.6920753 -1.4504817 24
-0.29938602 7.86479 -1.2930733 16
-0.32229501 8.4666023 -1.1907651 30
-0.39889276 10.478805 -0.73328 13
-0.41501179 10.902248 -0.50878423 36
-0.6457296 16.963142 -0.39411935 3
-0.45091522 11.845421 0 10
-0.73859596 19.402718 0.45080009 8
-0.18722618 4.9183812 -1.5358423 16
-0.19584487 5.1447921 -1.4763138 74
-0.22535722 5.920073 -1.5509118 14
-0.24977209 6.5614452 -1.555814 14
-0.26804525 7.0414762 -1.4977959 20
-0.29725671 7.8088536 -1.4723295 28
-0.27846703 7.8951797 -1.2979369 16
-0.29474252 8.3566275 -1.1751777 13
-0.28687209 8.1334829 -0.95173883 10
-0.30077434 8.5276432 -0.79608399 9
-0.36885706 10.457945 -0.73174542 16
-0.37541252 10.643807 -0.49667254 8
-0.40588394 11.507742 -0.26734197 6
-0.67458761 19.126108 0 18
-0.68702143 19.478636 0.45251769 8
-0.18798357 5.3297663 -1.5292362 18
-0.20909819 5.9284139 -1.5529379 14
-0.23103765 6.5504479 -1.5530474 16
-0.24934728 7.0695682 -1.5036175 20
-0.27815232 7.8862572 -1.4867715 30
-0.26492447 8.2466602 -1.1595904 13
-0.26860917 8.3613586 -0.78047812 9
-0.34125066 10.622568 -0.74318546 36
-0.32971704 10.263546 -0.47887769 14
-0.37351385 11.626867 -0.27008083 8
-0.47809553 14.882322 0 3
-0.72109097 22.446369 0.52140731 10
-0.15552284 4.8411684 -1.5114166 24
-0.16623712 5.174686 -1.4845829 74
-0.19127843 5.9541807 -1.5595224 17
-0.21126814 6.5764275 -1.5590419 14
-0.22939564 7.1407065 -1.5185871 20
-0.25450921 7.9224505 -1.4934368 28
-0.25004229 8.4746485 -1.3929396 23
-0.2550171 8.64326 -1.2152596 18
-0.24710979 8.3752575 -0.97984737 7
-0.24707195 8.3739758 -0.78159285 6
-0.29714265 10.071014 -0.70454037 4
-0.33908331 11.492504 -0.53617525 18
-0.34230876 11.601824 -0.26947734 8
-0.5624696 19.063704 0 6
-0.67022932 22.71599 0.52762783 10
-0.14510117 4.9178944 -1.5352465 22
-0.1560353 5.2884827 -1.5171081 28
-0.1767178 5.9894724 -1.5686394 17
-0.19313312 6.5458341 -1.551664 16
-0.21225943 7.1940794 -1.5298144 18
-0.23249349 7.8798695 -1.4852902 20
-0.22742331 8.6273022 -1.4179062 27
-0.22457591 8.5192871 -1.1977237 25
-0.21990864 8.3422337 -0.97589821 10
-0.29955712 11.363699 -0.53011942 22
-0.3002761 11.390973 -0.26455668 12
-0.50806135 19.273306 0 6
-0.50945246 19.326078 0.44885039 24
-0.13050669 4.9507709 -1.5453743 18
-0.14291698 5.421555 -1.555146 18
-0.15734079 5.9687228 -1.5630679 17
-0.17251781 6.5444627 -1.5512029 16
-0.18568945 7.0441289 -1.4977959 31
-0.20789394 7.8864565 -1.4864012 24
-0.20569912 8.7285271 -1.4344424 45
-0.20218194 8.5792809 -1.2060742 39
-0.19665612 8.3448009 -0.97613049 2
-0.19882913 8.4370098 -0.78735214 9
-0.2633206 11.173606 -0.78155154 56
-0.26607752 11.290592 -0.5266723 49
-0.45517465 19.314638 0 6
-0.45514619 19.313433 0.44852546 8
-0.11519515 4.8881297 -1.5257145 32
-0.12768434 5.4180894 -1.5540435 14
-0.13921186 5.9072423 -1.5468599 19
-0.16974893 7.2030358 -1.5314776 15
-0.18809021 7.9813199 -1.5041758 18
-0.18234761 8.9283762 -1.2550632 55
-0.17232415 8.4375925 -0.78735214 9
-0.23330037 11.423202 -0.5328213 36
-0.24010499 11.756379 -0.27300537 8
-0.27475971 13.453195 0 12
-0.44060758 21.573687 0.50098187 19
-0.10135942 4.9629116 -1.5489488 16
-0.1107811 5.4242301 -1.5556973 14
-0.12037764 5.8941097 -1.5433143 19
-0.13423494 6.5726118 -1.5576586 11
-0.14664115 7.1800632 -1.5264878 24
-0.16273585 7.9681158 -1.5015836 16
-0.14813863 8.2396803 -1.1581986 7
-0.18488696 10.283674 -0.95957381 21
-0.20455779 11.377794 -0.53067845 24
-0.21126635 11.750935 -0.27286613 8
-0.24231353 13.477822 0 12
-0.38795665 21.578699 0.50107467 9
-0.089985847 5.0051403 -1.5620553 12
-0.09762878 5.4302511 -1.5573511 14
-0.10572987 5.8808451 -1.5397688 17
-0.1181025 6.5690284 -1.5567364 11
-0.13064146 7.2664628 -1.5447839 16
-0.14499414 8.0647793 -1.5197284 20
-0.13259602 8.9371891 -1.4684877 31
-0.15214735 10.254981 -1.1993722 18
-0.15381733 10.36754 -0.72504878 6
-0.16922952 11.406347 -0.53198278 9
-0.1724526 11.623589 -0.26989514 2
-0.26429683 17.814039 0 5
-0.28495911 19.206711 0.44597223 8
-0.074460521 5.0187612 -1.5662255 12
-0.080683798 5.4382205 -1.5595562 14
-0.087427489 5.892756 -1.5428078 17
-0.10708842 7.2179351 -1.5343884 22
-0.11174192 9.2781391 -1.3040521 57
-0.1119328 9.2939882 -1.0869384 22
-0.11942664 9.9162159 -0.92520374 9
-0.12628447 10.485633 -0.73328 6
-0.13680089 11.358831 -0.52974677 9
-0.13838147 11.49007 -0.26678491 8
-0.19369476 16.082834 0 4
-0.26241192 21.788548 0.50590253 10
-0.060446069 5.018949 -1.5662255 12
-0.065498047 5.4384246 -1.5595562 14
-0.07122878 5.9142575 -1.5483793 14
-0.075652994 6.2816086 -1.4884907 20
-0.087145001 7.2358112 -1.5381308 22
-0.087125428 7.2341857 -1.3630898 8
-0.08615566 9.4923191 -1.3341135 21
-0.088558957 9.7571058 -1.1410645 10
-0.099349909 10.946013 -1.0212541 40
-0.10397037 11.455079 -0.53421879 9
-0.10440012 11.502427 -0.26706344 8
-0.13592191 14.975384 0 10
