# .PCD v0.7 - Point Cloud Data file format
VERSION 0.7
FIELDS x y z intensity
SIZE 4 4 4 4
TYPE F F F F
COUNT 1 1 1 1
WIDTH 1410
HEIGHT 1
VIEWPOINT 0 0 0 1 0 0 0
POINTS 1410
DATA ascii
4.5075612 -8.9974699 -0.70370328 6
4.9628816 -9.9063272 -0.51670343 6
5.7935648 -11.564441 -0.30030128 2
8.0382853 -16.045092 0 21
18.561975 -37.051258 0.962134 40
18.598724 -37.124611 1.93638 28
18.073137 -36.0755 2.8215098 30
22.199022 -44.311108 4.6237893 21
18.764296 -37.455105 4.8990045 26
2.9245369 -5.8376212 -1.5470529 11
18.415558 -36.758999 5.7781892 27
2.9564817 -5.9013853 -1.4029882 49
2.7818782 -5.5528622 -1.1701612 6
3.3497574 -6.7362299 -1.236007 6
3.8678129 -7.7780194 -1.2208265 6
4.1916146 -8.4291716 -1.1008765 37
4.320745 -8.6888475 -0.90532488 42
4.087306 -8.2194109 -0.64189911 4
3.7628138 -7.5668702 -0.39409581 6
5.8170958 -11.697949 -0.30331871 5
9.6470118 -19.399761 0 8
19.341352 -38.894695 1.008509 37
19.324312 -38.860432 3.0348251 35
22.120655 -44.483765 4.6349363 21
18.870668 -37.94817 4.9561505 25
2.8734093 -5.7783127 -1.5290692 11
18.319641 -36.840076 5.7823644 27
3.0600369 -6.1536136 -1.4607877 26
18.947393 -38.102463 6.9912853 26
2.6161118 -5.3002853 -0.97110194 3
3.3687305 -6.8251033 -1.0696845 5
2.7026978 -5.4757099 -0.71409452 10
3.9970403 -8.0980692 -0.84252995 15
4.1247129 -8.3567362 -0.65166497 6
3.7315035 -7.5600872 -0.39316416 5
4.9230599 -9.9742002 -0.25824332 8
8.0022392 -16.212667 0 16
16.06831 -32.554657 0.84287691 32
23.72953 -48.07642 2.5002258 30
23.747795 -48.113422 5.0057611 30
18.728975 -37.945213 4.9484849 25
2.8450541 -5.7641263 -1.5230746 13
18.181326 -36.835663 5.7731791 27
3.0642774 -6.2082763 -1.4715991 19
3.2638578 -6.6126299 -1.3893814 15
2.609705 -5.3223672 -0.83309025 4
3.3976099 -6.9292612 -0.90249097 10
4.0871668 -8.3355799 -0.86612445 66
3.7134573 -7.5734172 -0.39335048 6
5.8634653 -11.958255 -0.30921423 7
8.0478182 -16.413136 0 5
10.562336 -21.541374 0.55701268 11
19.499611 -39.768517 2.0655093 26
19.139473 -39.034031 3.0399871 35
23.982954 -48.912079 5.082304 31
2.7402444 -5.5885963 -1.6294198 2
18.58322 -37.899582 4.9361725 25
2.865082 -5.8431964 -1.5419805 22
18.066519 -36.845791 5.767334 27
3.1625619 -6.449892 -1.5269036 100
3.3841147 -6.9017386 -1.4482598 22
3.353003 -6.8929849 -1.2593523 26
2.5643823 -5.2717667 -0.82390481 3
3.37148 -6.9309692 -0.90132946 10
3.7335327 -7.6752639 -0.59683639 10
4.2349668 -8.7060947 -0.45148662 7
5.3229609 -10.942754 -0.28252181 9
10.018017 -20.594683 0 9
23.481083 -48.271576 2.5033004 30
23.605558 -48.52747 3.773546 38
23.989456 -49.316673 5.116488 32
2.6913598 -5.5328016 -1.6106791 6
18.51968 -38.072102 4.9510403 25
2.866291 -5.8924198 -1.5525862 16
17.951544 -36.904148 5.767612 27
3.2056088 -6.5899768 -1.5576745 36
3.5558565 -7.3100033 -1.5315782 48
3.2862039 -6.8069305 -1.2418432 22
2.5418415 -5.2650838 -0.82167804 4
3.3681738 -6.9767199 -0.90597546 10
3.8104944 -7.8929276 -0.61288035 15
3.9607053 -8.2040691 -0.4248409 6
5.2835159 -10.944094 -0.28215045 6
8.1682663 -16.919468 0 6
16.322571 -33.810013 0.87165827 36
19.13472 -39.635006 2.0524659 26
23.153547 -47.959465 3.7240191 39
18.206276 -37.711853 4.8971462 26
2.987021 -6.1872129 -1.4603719 17
3.4435763 -7.1329064 -1.492326 68
3.4330702 -7.1589551 -1.3044218 56
3.9382007 -8.2123003 -0.63687658 4
4.0541062 -8.4539967 -0.43723211 3
5.2885633 -11.028201 -0.28396088 13
9.5517282 -19.918146 0 9
9.6719236 -20.168791 0.51931834 10
23.170515 -48.317299 2.4989214 30
22.961479 -47.881397 3.7132766 40
23.10832 -48.187603 4.9858823 29
2.6763124 -5.580894 -1.6203027 9
18.015572 -37.567738 4.8722897 26
2.945435 -6.1420932 -1.4478971 26
3.42489 -7.1418972 -1.492326 60
3.3566895 -7.0532775 -1.2833461 15
3.3541169 -7.0478721 -1.0969625 13
3.6902416 -7.7541575 -1.0042391 15
3.7344091 -7.8469648 -0.81076092 18
5.1973929 -10.921075 -0.28080422 9
8.2893648 -17.41811 0 12
9.5733757 -20.116152 0.51722938 10
23.009027 -48.347954 2.4969649 30
22.769587 -47.844826 3.7051847 40
2.5222461 -5.2998953 -1.6830418 2
23.07649 -48.489708 5.0100341 30
2.6597424 -5.5888104 -1.6203027 11
17.810986 -37.425514 4.8469691 26
2.2956212 -4.8236971 -1.2657704 5
2.9591439 -6.2179313 -1.4636985 23
3.3867934 -7.1165338 -1.4849199 42
3.3454106 -7.0804677 -1.2865885 13
3.3386524 -7.0661645 -1.0983542 15
3.5183675 -7.4465265 -0.96312171 30
3.7073767 -7.8465595 -0.80964619 15
3.6973598 -7.8253589 -0.6052072 16
3.9729154 -8.4085646 -0.43369174 6
5.177125 -10.957241 -0.28136128 2
8.5072632 -18.005386 0 13
10.310686 -21.822281 0.56035501 11
22.850025 -48.361439 2.4943564 30
22.613728 -47.861324 3.7015576 40
2.5008652 -5.2930117 -1.6786315 5
22.914618 -48.49815 5.0042748 30
23.013655 -48.707756 6.2997818 29
2.2796474 -4.82481 -1.2643871 7
3.083842 -6.5268655 -1.5343884 96
3.3055105 -7.0469003 -1.2788068 15
3.6806204 -7.8465838 -1.0135311 20
3.9661095 -8.4552078 -0.65306014 13
5.0955596 -10.863042 -0.27857599 6
5.5785127 -11.892632 0 12
9.4354038 -20.115002 0.51583672 10
22.675013 -48.340054 2.4899776 30
22.52574 -48.02182 3.7090912 40
2.4901571 -5.3086772 -1.681388 5
22.589666 -48.158104 4.9626594 29
2.3474796 -5.004508 -1.4470787 15
22.857302 -48.728668 6.2942066 29
2.2686446 -4.8364425 -1.2657704 7
2.9883406 -6.3707371 -1.4957168 13
3.2460003 -6.9200325 -1.4401131 15
3.2542181 -6.9946227 -1.2674583 11
3.7129314 -7.9805818 -1.0293275 57
3.7430701 -8.0453625 -0.82785302 15
3.8570502 -8.2903509 -0.63938785 4
7.4595928 -16.033663 0 10
9.3063755 -20.003141 0.51221585 20
22.648602 -48.680946 2.5038595 30
22.346989 -48.032658 3.7044873 40
2.4556255 -5.2781262 -1.6692599 7
22.609621 -48.59716 5.0005589 30
2.2615566 -4.8609939 -1.4035195 5
2.2559018 -4.8488398 -1.2671539 5
3.0095723 -6.46878 -1.516508 30
3.2235236 -6.9827452 -1.2635673 5
3.6156859 -7.8322406 -0.80481583 20
4.1005535 -8.8825531 -0.45623812 7
5.1506219 -11.157194 -0.28530711 2
7.1051798 -15.391126 0 4
9.3668232 -20.290262 0.5188542 10
22.555138 -48.858574 2.5095425 31
22.161724 -48.006371 3.6973722 40
2.4157798 -5.2330236 -1.6527216 12
22.300903 -48.307858 4.9639597 29
2.2187405 -4.8062 -1.3857919 1
2.7480459 -5.9527726 -1.5535085 23
3.1223776 -6.7636442 -1.5834556 40
3.1797776 -6.8879828 -1.4293742 22
3.160465 -6.8935137 -1.0657877 4
3.1343248 -6.8364968 -0.87949318 5
3.8267148 -8.3467178 -0.85664946 100
4.2887921 -9.3545876 -0.71960783 21
5.0955672 -11.114302 -0.57018119 7
5.0389004 -10.990702 -0.28071138 9
8.5110102 -18.563967 0 7
9.3253412 -20.340162 0.51950407 10
22.369705 -48.792145 2.503114 30
21.981932 -47.946342 3.6883039 40
2.4213018 -5.2812724 -1.6659522 11
22.298851 -48.637596 4.9918275 29
2.20857 -4.8172679 -1.3873113 5
2.7413747 -5.9794059 -1.5585808 43
2.9179575 -6.364563 -1.488232 17
3.18467 -6.9463086 -1.4397428 18
3.2694592 -7.1874681 -1.2972885 19
3.2448044 -7.1332674 -0.91642904 2
3.6221826 -7.962883 -0.81614858 13
3.6670508 -8.0615196 -0.61929798 28
3.8713741 -8.5106964 -0.43602091 8
6.1620045 -13.546341 -0.34551591 6
8.209939 -18.04845 0 13
17.813765 -39.161171 0.99885339 38
21.980827 -48.321903 3.7121606 40
2.3809435 -5.2341847 -1.6488627 11
2.6720488 -5.8741412 -1.5290692 63
2.9662912 -6.5209932 -1.5227454 33
3.2218239 -7.0827484 -1.4660344 31
3.2408133 -7.1809468 -1.2943703 33
3.199343 -7.0890574 -1.0930656 11
3.6116476 -8.002636 -0.81912118 27
3.7498081 -8.3087702 -0.63743466 9
5.1060114 -11.313826 -0.28818524 6
6.2065287 -13.752336 0 10
15.637161 -34.648594 0.88256735 37
21.815201 -48.337807 3.7083936 40
2.3867557 -5.2885389 -1.6637472 12
2.5500338 -5.6503277 -1.6228353 22
2.6369965 -5.8430185 -1.5189246 10
2.9026699 -6.4316936 -1.4998751 23
3.2016041 -7.0940676 -1.4664047 52
3.2707701 -7.3016372 -1.3144733 20
3.252404 -7.2606368 -1.1181167 39
3.1671236 -7.0702577 -0.90597546 12
3.2164369 -7.1803446 -0.73403215 15
3.563467 -7.9550514 -0.60953212 22
3.6009595 -8.0387497 -0.41077271 6
5.3065391 -11.846269 -0.30136898 10
8.4966745 -18.967899 0 7
14.557834 -32.498775 0.82676858 31
34.569706 -77.173096 3.9434738 63
2.3436844 -5.2320199 -1.6439012 13
2.5698388 -5.7368846 -1.6456279 20
2.6922729 -6.0102053 -1.5604252 17
2.8663042 -6.3987112 -1.4903111 15
3.1721399 -7.0814562 -1.461961 45
3.1497104 -7.087678 -1.2742674 51
3.4946544 -7.863893 -1.2094144 81
3.6357985 -8.1815042 -1.0469825 52
3.1530662 -7.0952291 -0.72437137 9
3.6711028 -8.2609482 -0.63213313 5
4.3603263 -9.811882 -0.24928395 5
6.2498603 -14.063832 0 7
15.469819 -34.811169 0.88442415 37
2.3617215 -5.3144956 -1.6676061 17
2.5583055 -5.7568612 -1.6491734 22
2.7787497 -6.2529187 -1.6212929 12
2.8544559 -6.4232774 -1.4940536 23
3.0042541 -6.7603626 -1.3938251 56
3.2648003 -7.4057922 -1.3297126 89
3.5088563 -7.9594026 -1.2224966 100
3.0922585 -7.0144029 -0.89645118 5
3.5483906 -8.0490818 -0.6151126 5
4.1568093 -9.429204 -0.4805547 8
4.830452 -10.957277 -0.27801892 9
5.0463548 -11.447026 0 8
2.5490184 -5.7821302 -1.6542385 20
2.7319238 -6.1970286 -1.6046927 21
2.8038199 -6.3601155 -1.4774207 13
2.9270995 -6.63976 -1.3671632 17
3.2863026 -7.5148978 -1.3475459 56
3.5074434 -8.0205879 -1.2302903 84
3.5412791 -8.0979614 -0.61804235 2
3.5236597 -8.0576706 -0.41012055 6
4.3436832 -9.9328461 -0.2516979 6
6.9283671 -15.843328 0 9
16.310041 -37.296715 0.94509721 41
2.3509412 -5.3759761 -1.6824905 17
2.456655 -5.6177149 -1.6051077 27
2.3400249 -5.3510132 -1.3838168 8
2.794342 -6.389915 -1.4824104 15
2.9443974 -6.7330518 -1.3845674 19
3.1109893 -7.1650419 -1.2833461 10
3.2403326 -7.4629374 -1.1434463 25
3.4929121 -8.0446625 -1.0256108 27
3.2469258 -7.4781222 -0.76059926 6
3.5566585 -8.1914797 -0.41645589 6
3.9903755 -9.1903906 -0.2326186 5
4.3594513 -10.040423 0 2
16.151028 -37.198067 0.94152278 41
2.2939811 -5.2833576 -1.6516191 20
2.4750743 -5.7004404 -1.6268873 18
2.7220728 -6.2693129 -1.6194484 12
2.9604192 -6.8182578 -1.4004905 20
3.1126537 -7.2309747 -1.2933975 12
3.1001928 -7.2020268 -1.1019727 11
3.0670581 -7.1250515 -0.90713704 5
4.0515037 -9.4120073 -0.71653849 30
3.9061441 -9.0743246 -0.2293691 5
6.7239208 -15.620273 0 4
16.180338 -37.588383 0.95011073 41
2.1914759 -5.0909953 -1.5893251 76
2.4364986 -5.6602054 -1.6132118 27
2.5815575 -5.9971905 -1.5470529 33
2.781471 -6.461607 -1.495301 20
2.9887187 -6.9430623 -1.42419 15
3.0622149 -7.1688581 -1.2807522 23
3.1493106 -7.3727551 -1.1267456 85
3.1064537 -7.2724242 -0.92479193 10
3.0397866 -7.1163521 -0.72195619 9
3.6341269 -8.5077438 -0.64692152 9
3.7449923 -8.7672873 -0.44459227 5
3.8650804 -9.0484219 -0.22844066 7
7.0071006 -16.40411 0 16
16.00148 -37.460575 0.94574714 41
32.042755 -75.01432 3.804003 63
2.2573025 -5.284502 -1.6477602 20
2.4541242 -5.7452755 -1.6354978 20
2.6259582 -6.1475506 -1.5839423 21
2.436048 -5.7029576 -1.3181602 21
2.8581429 -6.6911111 -1.3708662 15
2.9454684 -6.9525805 -1.2405463 15
3.0895641 -7.2927084 -1.1131065 6
3.0763383 -7.2614899 -0.92223662 10
3.3472462 -7.90095 -0.80054271 9
3.7368867 -8.8206701 -0.44673508 38
5.8123169 -13.719584 0 10
15.972935 -37.703041 0.9506678 41
2.2918596 -5.409781 -1.6846957 16
2.4498971 -5.7828174 -1.6441083 15
2.3966601 -5.657155 -1.4557513 11
2.6251605 -6.1965151 -1.4304326 9
2.9443967 -7.0044422 -1.2483281 17
3.1853509 -7.5776491 -0.57479334 5
3.769531 -8.9673586 -0.45362946 21
4.8038993 -11.428023 -0.28781387 9
5.7654576 -13.71548 0 10
14.271455 -33.950447 0.8550393 34
2.2707839 -5.4019809 -1.6802853 15
2.4254918 -5.7700162 -1.6385368 18
2.6336222 -6.2651386 -1.4445705 15
2.6654134 -6.3938046 -1.1380861 2
3.072659 -7.3707075 -1.1222919 18
3.1522708 -7.5616808 -0.76431495 9
3.559952 -8.539628 -0.43145573 9
3.4982355 -8.3915815 -0.211079 6
5.7739902 -13.850672 0 3
14.233748 -34.143974 0.85884595 34
2.2473488 -5.3909497 -1.6747726 17
2.3897495 -5.7325411 -1.6258743 20
2.7076087 -6.4950233 -1.4957168 27
2.9274507 -7.0223808 -1.4334476 48
3.0749884 -7.4383612 -1.131199 10
3.474268 -8.4042139 -1.0634758 47
3.5781035 -8.6553917 -0.43676624 3
3.8690062 -9.3590813 -0.23512536 5
5.9124265 -14.302092 0 3
14.015504 -33.903343 0.8517434 33
2.1740539 -5.2590117 -1.6317732 33
2.3668168 -5.7253027 -1.6218222 18
2.5828886 -6.2479782 -1.601926 15
2.6629145 -6.4415598 -1.4815788 12
2.987695 -7.2272 -1.4734404 28
3.0376716 -7.4066062 -1.1250755 16
3.4394794 -8.3863153 -1.0599914 27
3.7308109 -9.0966549 -0.68751985 10
6.5547276 -15.982073 0 4
13.71289 -33.435471 0.83902389 32
15.981268 -38.966347 1.9640507 28
1.9478012 -4.749229 -1.4719036 15
2.3412757 -5.7086186 -1.6152377 18
2.2848144 -5.5709515 -1.4267008 8
2.6360085 -6.4272509 -1.476589 28
3.0134435 -7.4100828 -1.1242404 24
3.0621228 -7.5297856 -0.95057732 7
3.6659191 -9.0145264 -0.45381579 3
4.7407403 -11.65752 -0.2921775 9
6.5215926 -16.036652 0 4
14.043708 -34.533596 0.86553061 35
1.8844533 -4.6338863 -1.4344169 10
2.3265138 -5.7209172 -1.6167573 22
2.2631426 -5.5650868 -1.423473 8
2.6390352 -6.4894094 -1.4890636 55
3.0163047 -7.480649 -1.3251733 13
3.0425479 -7.5457335 -1.1434463 19
3.6062829 -8.9438362 -0.44971645 7
4.685194 -11.619613 -0.2908777 7
6.9593806 -17.259756 0 17
13.672004 -33.907536 0.8488189 33
31.841679 -78.969612 3.9707718 63
1.8613496 -4.6162782 -1.4272504 7
2.3268938 -5.7708607 -1.6289133 27
2.2575371 -5.5988512 -1.4303899 8
2.6219635 -6.5026546 -1.4903111 27
2.9370074 -7.2839856 -1.4797357 22
2.9472108 -7.372283 -1.3044218 50
3.0789614 -7.7018499 -1.165714 36
3.1007113 -7.7562566 -0.9768275 17
2.9375873 -7.3482108 -0.73830515 4
3.9203618 -9.8065662 -0.24519885 5
6.0699577 -15.183661 0 17
13.677476 -34.213444 0.85545713 34
1.8355126 -4.5914321 -1.4178786 9
2.3277166 -5.8226533 -1.6415759 20
2.4150159 -6.0410275 -1.5415194 11
2.5786941 -6.4504595 -1.476589 13
2.9547799 -7.3912168 -1.499732 18
2.9104323 -7.335947 -1.2966399 23
3.0171556 -7.6049504 -1.1498482 22
3.3228695 -8.3755236 -1.0537192 30
3.3461933 -8.4343128 -0.63450491 6
3.2755744 -8.2563133 -0.41421986 6
3.8017681 -9.5826206 -0.23934974 3
6.025022 -15.186487 0 17
1.8241946 -4.5980091 -1.41843 13
2.3124645 -5.8287277 -1.6415759 20
2.620955 -6.6062994 -1.5106865 31
2.9412172 -7.4135427 -1.5026945 22
2.9645002 -7.5373931 -1.3306853 34
2.9706566 -7.5530457 -1.1406628 13
3.2972784 -8.3834982 -1.0534869 20
3.0313413 -7.7073398 -0.77267522 6
3.3890667 -8.6168747 -0.64747959 55
3.2510636 -8.265995 -0.41421986 8
3.6979415 -9.4022055 -0.23456833 7
6.0092187 -15.278746 0 4
13.510329 -34.3507 0.85698903 34
30.946529 -78.683128 3.942915 63
1.8365803 -4.6695991 -1.438827 12
2.2887871 -5.8193579 -1.6370174 20
2.3741159 -6.0363107 -1.5369081 19
2.9127343 -7.4057755 -1.4993618 22
2.9880047 -7.6638341 -1.3514367 28
2.9489532 -7.5636721 -1.1409411 19
3.0133402 -7.728817 -0.97009069 15
3.0113533 -7.7237201 -0.77341831 13
3.0808399 -7.9019442 -0.59306955 6
2.9971988 -7.6874156 -0.38477913 5
3.7978587 -9.7410021 -0.2427385 7
5.8679619 -15.050541 0 12
13.637138 -34.977444 0.87161183 36
30.712217 -78.772751 3.9428217 63
2.0978708 -5.3807597 -1.6560293 22
2.2722139 -5.8279262 -1.6375238 20
2.3675065 -6.0723391 -1.5442861 19
2.9185922 -7.4858003 -1.5138037 30
2.9096508 -7.5248909 -1.3254975 28
2.9999614 -7.758451 -1.1690542 16
2.9725363 -7.6875243 -0.76895952 9
3.7847755 -9.7881241 -0.73383808 21
5.871932 -15.185894 -0.37801105 3
5.9203982 -15.311236 0 12
14.972958 -38.722816 0.963898 40
30.569929 -79.059448 3.9528835 63
2.1230507 -5.4905987 -1.6880032 13
2.2356942 -5.7819157 -1.6228353 24
2.3617694 -6.1079693 -1.551664 16
2.6782074 -6.9263358 -1.5784657 39
2.9012201 -7.503088 -1.5156553 16
2.8857999 -7.5256157 -1.3242005 24
3.0697601 -8.0053482 -1.2049607 25
3.3200567 -8.6580744 -1.084383 37
3.4964931 -9.118187 -0.91108418 21
3.7702858 -9.8321857 -0.73634934 16
4.0648308 -10.600304 -0.26358181 8
4.4440188 -11.589152 0 8
13.122287 -34.220421 0.85090774 33
30.337593 -79.114655 3.9513931 63
2.107022 -5.4947114 -1.687452 13
2.2333944 -5.8242664 -1.6329653 20
2.3767564 -6.1981273 -1.5728755 23
2.5958161 -6.769393 -1.5410416 100
2.8809605 -7.5129952 -1.5160255 16
2.8724885 -7.553936 -1.3277671 22
3.2570319 -8.5651903 -1.0716064 80
2.9109986 -7.6552081 -0.57270062 58
3.5078681 -9.2248268 -0.4602443 1
6.9608049 -18.305199 0 13
14.444468 -37.98539 0.94351888 41
30.112278 -79.187866 3.950834 63
1.9122853 -5.0288386 -1.6788222 5
2.0944026 -5.5077615 -1.6896571 11
2.2274363 -5.8576074 -1.6405628 15
2.4583535 -6.4648628 -1.6388154 19
2.6220982 -6.8954716 -1.5680701 22
2.8760355 -7.5632639 -1.5245425 26
2.8814397 -7.6497254 -1.3430065 56
3.0564103 -8.1142416 -1.2185998 16
3.1089704 -8.2537794 -1.0314182 97
3.0646789 -8.1361933 -0.81113243 4
3.009305 -7.9891853 -0.59697592 8
3.7028148 -9.8303347 -0.48987138 8
3.4246247 -9.0917873 -0.22556253 7
6.2440987 -16.577003 0 15
12.994403 -34.497898 0.8558749 34
1.8890752 -5.0151682 -1.672269 5
2.0737011 -5.5053186 -1.6869007 11
2.2090235 -5.8645763 -1.6405628 15
2.3982441 -6.3669238 -1.6120704 25
2.6238692 -6.9659195 -1.582208 19
2.9035282 -7.7083664 -1.5519449 28
2.8635197 -7.6669865 -1.3446277 24
3.0995696 -8.2990036 -1.2450426 25
3.181128 -8.5173731 -1.0632435 42
3.1046531 -8.3126144 -0.82785302 9
3.1615832 -8.4650431 -0.42139372 1
4.1393704 -11.083038 -0.27467656 8
6.9003429 -18.475458 0 6
14.182432 -37.97303 0.94110495 41
1.8523511 -4.9596138 -1.6520135 10
2.0522656 -5.4948788 -1.6819392 12
2.2122698 -5.923285 -1.6552514 15
2.2851281 -6.118361 -1.547514 79
2.6044066 -6.9732194 -1.582208 16
2.8861177 -7.7274919 -1.5541667 26
2.8729539 -7.7624388 -1.359867 61
2.7202115 -7.3497438 -1.101416 4
3.223413 -8.7093449 -1.086009 32
3.272368 -8.8416166 -0.43965444 7
3.4915729 -9.4338865 -0.23354703 7
4.896184 -13.229008 0 6
7.1212544 -19.240929 0.47633198 8
1.8303376 -4.9453921 -1.6454601 16
2.1973712 -5.9370809 -1.6572775 15
2.3696394 -6.4025331 -1.6176039 21
2.5565436 -6.9075298 -1.5655751 66
2.8631766 -7.7360215 -1.5541667 52
2.9022536 -7.9093871 -1.3841851 83
3.0115824 -8.2073364 -1.0223584 7
3.2242651 -8.7869511 -0.43648678 8
3.4431739 -9.3835344 -0.23206154 7
5.1031132 -13.907295 0 3
7.0757604 -19.283266 0.47688904 8
1.8461158 -5.0311408 -1.672269 12
1.981509 -5.4001217 -1.6494141 14
2.17945 -5.9395618 -1.6562645 18
2.352421 -6.4109521 -1.618065 21
2.6053081 -7.1001348 -1.6075734 19
2.7745345 -7.5613198 -1.5175066 100
2.9629927 -8.1540356 -1.4253638 50
2.9971673 -8.2480831 -1.2333521 24
3.2619059 -8.9766331 -1.1169051 55
3.3344722 -9.1763325 -0.45530644 1
4.9685512 -13.673251 0 7
12.822976 -35.288311 0.8717047 36
1.8309532 -5.0387092 -1.6728647 12
2.0013039 -5.5075078 -1.6802853 16
2.1720133 -5.9772925 -1.664875 18
2.3222995 -6.3908744 -1.6111484 21
2.5402298 -6.9906096 -1.5809606 25
2.6252437 -7.2245641 -1.4482598 9
2.8104563 -7.8020678 -1.3624609 61
2.9573426 -8.209837 -1.2263935 24
3.0072594 -8.3484097 -1.0376904 37
3.6268866 -10.068548 -0.74834746 22
4.134171 -11.476812 -0.28321815 6
4.9296718 -13.685191 0 7
13.294263 -36.906013 0.91074526 40
1.8252871 -5.0671535 -1.6806093 12
1.9728857 -5.4768996 -1.6692599 16
2.165149 -6.0106392 -1.6724725 18
2.3024654 -6.3918414 -1.6097649 21
2.5525222 -7.0860205 -1.6009202 27
2.6663387 -7.4019852 -1.4823278 16
2.8417492 -7.9585743 -1.3884002 26
3.0156567 -8.4456186 -1.2603518 63
3.0534055 -8.5513372 -1.0618497 52
3.0856974 -8.6417732 -0.85609215 11
3.0600154 -8.5698481 -0.63631856 2
3.025192 -8.4723225 -0.41953039 4
5.7395172 -16.074036 0 9
13.182407 -36.918518 0.91014177 40
1.8181916 -5.0920095 -1.6871626 11
1.9679271 -5.5113568 -1.6780803 15
2.1327403 -5.9729314 -1.6603165 18
2.3186369 -6.4935513 -1.6337432 19
2.5274613 -7.078383 -1.5975935 27
2.8082519 -7.9390626 -1.3835366 28
2.8967991 -8.1893902 -1.2208265 90
3.1002262 -8.7644882 -1.0871706 37
3.1815689 -8.9944477 -0.89009064 100
3.6209695 -10.236655 -0.5063619 8
3.272537 -9.2516193 -0.22783719 5
4.7127094 -13.323055 0 9
13.472211 -38.086586 0.93794835 41
1.7801553 -5.0325847 -1.6657157 13
1.9586185 -5.5371084 -1.6841443 12
2.1143639 -5.9774084 -1.6598099 18
2.2766457 -6.4361868 -1.6176039 25
2.2702866 -6.4182091 -1.4470656 9
2.3831215 -6.7371993 -1.3464261 12
2.8598521 -8.1573257 -1.4201758 26
2.8332934 -8.0815706 -1.2035692 24
2.8167984 -8.0345211 -0.99564385 12
3.2394509 -9.240078 -0.91349936 19
3.2785966 -9.3517361 -0.6929608 7
3.2731204 -9.3361158 -0.4613623 7
3.241396 -9.2456264 -0.22746581 5
6.1556807 -17.558214 0 23
1.9463284 -5.5516281 -1.6869007 13
2.1091855 -6.0161552 -1.668927 20
2.2496493 -6.4168086 -1.6111484 18
2.3350372 -6.6603651 -1.3297625 12
2.5702019 -7.4055762 -1.2878854 10
2.8013961 -8.0717211 -1.2007856 21
2.8447709 -8.1966982 -0.8094604 6
3.1007073 -8.9341326 -0.66129136 4
3.1153851 -8.9764233 -0.44310158 3
3.7741644 -10.874579 -0.26724911 8
5.2899756 -15.242118 0 4
11.764354 -33.896877 0.83303553 31
1.7640313 -5.0827403 -1.6788222 13
1.929508 -5.5595317 -1.687452 15
2.1016934 -6.0556531 -1.6780441 18
2.2907355 -6.6003437 -1.6554157 20
2.4047031 -6.9287214 -1.5589219 31
2.2999241 -6.6268191 -1.3216158 7
2.5893078 -7.5284319 -1.3079885 8
3.0352151 -8.8249102 -1.3115674 31
2.778554 -8.0786667 -0.59739441 5
3.0779607 -8.949194 -0.44133142 1
5.6474342 -16.419956 0 15
12.632095 -36.727913 0.90173948 39
1.7554195 -5.1038952 -1.684184 13
1.9095985 -5.5521717 -1.683593 16
2.0854039 -6.0633278 -1.6785506 20
2.2881188 -6.6527228 -1.6669437 20
2.4146132 -7.0205059 -1.5780498 22
2.5869615 -7.5216103 -1.4986212 26
3.0067255 -8.8221035 -1.3098973 33
2.98139 -8.7477665 -0.86222303 6
2.9999154 -8.8021221 -0.65026987 8
2.9537058 -8.6665373 -0.42698371 3
4.1913295 -12.297877 -0.30164751 10
5.1383104 -15.076437 0 7
12.686866 -37.224831 0.91306633 40
1.7473187 -5.1268492 -1.6901414 13
1.8909854 -5.5483847 -1.6808368 16
2.0672154 -6.0654655 -1.6775377 18
2.272043 -6.6664548 -1.6687881 20
2.4252911 -7.1161036 -1.5980093 54
2.7151642 -8.0447168 -1.1932702 12
3.148268 -9.3279533 -1.1512858 12
3.6362696 -10.773845 -0.26399961 6
4.0261092 -11.928895 0 8
12.417153 -36.790585 0.90150732 39
1.7345418 -5.139246 -1.6925243 13
1.8825071 -5.5776505 -1.6880032 13
2.0454977 -6.0605726 -1.6744986 15
2.251009 -6.6694784 -1.6678659 20
2.3553705 -6.9786897 -1.5655751 18
2.5989068 -7.7002592 -1.5312079 12
2.6035843 -7.7903285 -1.3494912 5
2.7276945 -8.161685 -1.2094144 22
2.8334541 -8.4781342 -1.0453563 7
2.839797 -8.4971132 -0.83584166 6
3.0873919 -9.237956 -0.68110222 28
3.4461966 -10.311554 -0.5070141 17
5.3093085 -15.886275 0 13
1.7180756 -5.140749 -1.6913329 15
1.8616843 -5.5704479 -1.6841443 15
2.0311866 -6.0776258 -1.6775377 13
2.2287431 -6.668745 -1.6660213 16
2.332794 -6.9800811 -1.5643277 24
2.3511505 -7.035007 -1.3975281 5
3.397625 -10.255454 -0.75546265 24
4.0721707 -12.291516 -0.30062625 32
5.3368874 -16.108959 0 13
12.257385 -36.997917 0.90489608 39
1.7052114 -5.1470418 -1.6919286 15
1.8277465 -5.5169039 -1.6665035 16
2.0128341 -6.0755758 -1.6755115 13
2.1910791 -6.6135941 -1.6508045 20
2.360039 -7.1235852 -1.5950986 28
2.4297667 -7.3340526 -1.4556658 16
2.6392069 -8.0508642 -1.3919668 28
2.876214 -8.7738514 -1.2976501 33
3.0723166 -9.3720598 -1.1533765 20
3.2157278 -9.8095331 -0.96310365 100
3.1298442 -9.5475473 -0.70258719 22
3.3574994 -10.242006 -0.50263524 14
3.8504205 -11.745655 -0.28697827 9
5.3304882 -16.26058 0 14
11.127106 -33.943085 0.8293218 31
1.6884387 -5.1505589 -1.6913329 13
1.8163947 -5.5408874 -1.6720164 15
1.9949429 -6.085546 -1.6765246 15
2.1466486 -6.5483222 -1.6328208 22
2.3431332 -7.1476955 -1.5988411 28
2.691077 -8.2872047 -1.4315244 27
2.814388 -8.6669436 -1.280671 49
3.0289538 -9.3277006 -1.146872 35
3.1040626 -9.5589991 -0.93765134 14
3.051409 -9.3968525 -0.69086808 3
3.0777528 -9.4779778 -0.46471632 9
3.8089592 -11.729737 -0.28632838 9
3.9662645 -12.214161 0 2
11.008188 -33.899853 0.82751131 31
1.6616657 -5.1171203 -1.6788222 13
1.8009143 -5.545938 -1.6720164 16
1.9779408 -6.0910931 -1.6765246 13
2.1433802 -6.6005659 -1.6443489 26
2.324976 -7.1597929 -1.6000886 22
2.2781529 -7.0156002 -1.3897518 5
2.6606729 -8.2721415 -1.4276334 20
2.7962391 -8.6936226 -1.2834544 76
2.9773488 -9.2566996 -1.1371155 37
3.0395532 -9.4500961 -0.92613268 19
3.0469918 -9.4732227 -0.46406415 7
3.8686352 -12.027746 -0.29333806 9
3.9186687 -12.183302 0 8
10.922666 -33.959015 0.82820767 31
1.6491237 -5.1271935 -1.6806093 15
1.787775 -5.5582662 -1.6742214 16
1.9532225 -6.072649 -1.66994 13
2.1589055 -6.7121263 -1.6706326 20
2.2720282 -7.0638289 -1.5772183 30
2.6615233 -8.3547573 -1.440603 56
2.7340775 -8.5825109 -1.2659186 10
2.9454567 -9.2460489 -1.1347924 20
3.0034797 -9.4281883 -0.92316014 35
3.3252921 -10.438386 -0.7660656 12
3.2885578 -10.323073 -0.5052439 17
2.9999304 -9.4170465 -0.22946194 3
5.2887797 -16.601946 0 20
11.906865 -37.376701 0.91074526 40
11.591515 -36.386791 1.7808846 26
1.6197318 -5.0844812 -1.6651199 22
1.7850842 -5.6035371 -1.6863495 13
1.9391925 -6.087297 -1.6724725 15
27.569717 -86.543785 10.62175 63
2.1336551 -6.6977315 -1.6655602 23
2.3003907 -7.2211299 -1.6108999 18
2.2490766 -7.0600505 -1.3960469 9
2.5536394 -8.0991087 -1.3952092 26
2.9283624 -9.2875786 -1.3686284 100
2.8935201 -9.1770725 -1.1252681 47
2.9239957 -9.2737284 -0.90718275 2
3.1935163 -10.128538 -0.74262744 8
4.007329 -12.709622 -0.30939993 10
4.9664574 -15.75159 0 8
10.786418 -34.210144 0.83280337 31
11.482303 -36.41721 1.7806982 26
1.6052132 -5.0910854 -1.6657157 22
1.7684509 -5.608809 -1.6863495 13
1.9251959 -6.1059408 -1.6760181 13
2.1108475 -6.6947522 -1.6632546 20
2.28425 -7.2447152 -1.6146423 18
2.2328477 -7.0816875 -1.3990093 11
2.4990289 -8.0086842 -1.3783488 22
2.8524172 -9.1411943 -1.345804 37
2.8639119 -9.1780319 -1.1243389 10
2.8894792 -9.2599669 -0.678312 6
3.8933663 -12.477143 -0.30345795 10
5.858602 -18.775171 0 6
11.319767 -36.276665 0.88228881 37
1.6139864 -5.1723719 -1.6907371 12
1.7523742 -5.6158662 -1.6869007 15
1.894968 -6.0728393 -1.6653814 15
2.0921342 -6.7047014 -1.6641769 20
27.709448 -88.80098 13.073644 63
2.2883852 -7.3336301 -1.6329386 22
2.5139184 -8.0564013 -1.5900862 16
2.4432299 -7.9123507 -1.3605155 11
2.7650948 -8.9547033 -1.3171344 100
3.2437577 -10.504844 -1.0257128 32
3.5206618 -11.401592 -0.27704409 8
4.4616113 -14.448838 0 10
10.472906 -33.916294 0.82412255 30
1.5980691 -5.1753144 -1.6901414 13
1.7334348 -5.6136932 -1.6846957 15
1.8809369 -6.0913758 -1.668927 15
2.0745282 -6.7183175 -1.6660213 16
2.2585347 -7.3142185 -1.627117 25
2.5033405 -8.1070175 -1.5986034 18
2.4952872 -8.1668158 -1.4029911 38
2.9265974 -9.5784502 -1.4075968 35
2.7594783 -9.0314865 -1.1043609 10
2.6656044 -8.724247 -0.85107601 6
2.891438 -9.463376 -0.46145546 3
5.3678012 -17.568256 0 5
11.110137 -36.362328 0.88275301 37
10.980226 -35.937138 1.7523755 25
1.5804746 -5.1727295 -1.6877584 15
1.7195793 -5.628005 -1.687452 12
1.8566358 -6.0765762 -1.6633555 20
2.0562909 -6.7300267 -1.6674048 20
2.2648327 -7.4125628 -1.6474924 16
2.460897 -8.0542612 -1.5867536 24
2.7371242 -9.054369 -1.3293815 27
2.9051144 -9.6100779 -1.1740514 23
2.9030447 -9.6032314 -0.93597919 7
2.8587224 -9.4566145 -0.46071014 5
3.3349121 -11.031843 -0.26757407 8
4.8497734 -16.042982 0 9
10.465861 -34.620922 0.83972019 32
1.5645678 -5.1755686 -1.6871626 15
1.6934162 -5.6017971 -1.6780803 13
1.7977283 -5.9468603 -1.6263808 27
2.0391297 -6.7454123 -1.6697104 16
2.219054 -7.3406 -1.6300278 27
2.3835287 -7.8846798 -1.5519449 58
2.8896573 -9.6562138 -1.1786973 31
3.16852 -10.588075 -1.0311005 7
2.8284752 -9.451766 -0.68989152 10
3.4359357 -11.481684 -0.27825105 15
4.806675 -16.062212 0 4
10.396658 -34.741959 0.84194845 32
1.5506564 -5.1817465 -1.6877584 16
1.6650898 -5.5641422 -1.665401 16
1.8182791 -6.0760469 -1.6603165 20
2.014148 -6.7305713 -1.664638 16
2.2176161 -7.4104905 -1.6441659 19
2.3079722 -7.7124286 -1.5167661 56
2.3726652 -8.009984 -1.3725125 13
2.3729663 -8.0110006 -0.97705978 10
3.3693044 -11.374582 -0.5532248 19
3.3720574 -11.383876 -0.27565143 8
4.800427 -16.205973 0 4
10.243945 -34.582981 0.83739913 32
10.782568 -36.401344 1.7704499 25
1.5285885 -5.1604285 -1.679418 17
1.653913 -5.5835176 -1.6698111 16
26.266983 -88.67585 8.6283607 63
1.8144923 -6.1256242 -1.6724725 15
1.9931334 -6.7287064 -1.6627935 20
2.2063584 -7.4485421 -1.6512347 16
2.375181 -8.0184765 -1.5756444 28
2.3591719 -8.0468788 -1.3777002 17
2.6043115 -8.8830233 -1.0825245 10
2.3289204 -7.9436941 -0.77230358 9
3.326287 -11.345604 -0.5513615 9
4.1092229 -14.016112 -0.33910975 11
4.7545915 -16.217396 0 4
10.174897 -34.705467 0.83967382 32
1.5157835 -5.1701727 -1.6812052 17
1.6372333 -5.5844245 -1.6687087 16
1.7821386 -6.078681 -1.6582905 20
1.9737886 -6.7323785 -1.6623325 20
2.1613336 -7.3720741 -1.6329386 27
2.3428271 -7.9911284 -1.5689789 26
2.4166276 -8.3343735 -1.4256879 17
2.3101909 -7.9672985 -0.97009069 2
2.863236 -9.8746185 -0.95920217 9
3.3270512 -11.474207 -0.83540356 26
3.086195 -10.643552 -0.51679659 4
3.5731554 -12.322962 -0.29788736 9
4.815062 -16.606003 0 14
5.8199501 -20.071621 0.4851985 18
1.4951195 -5.156311 -1.6752476 16
1.6222626 -5.5947976 -1.6703625 16
1.6994362 -5.8609505 -1.5975101 59
1.9315833 -6.6615705 -1.6434265 26
2.114934 -7.2939034 -1.6142266 46
2.3453791 -8.0886536 -1.5867536 34
2.37521 -8.2888031 -1.4166093 34
2.302882 -8.0363989 -1.1748995 3
2.541791 -8.8701229 -1.0790401 10
3.3912008 -11.834321 -0.57409418 10
3.227633 -11.263515 -0.27203053 8
4.7254043 -16.490309 0 4
9.6063385 -33.523373 0.80963898 29
19.551413 -68.228836 3.3098459 55
1.4789128 -5.1609826 -1.6752476 16
1.6015002 -5.5887775 -1.6670549 16
1.6218543 -5.6598077 -1.5412884 44
1.8752631 -6.5441318 -1.6129928 28
2.1151814 -7.3813782 -1.6321069 24
2.3280771 -8.1243229 -1.5923082 38
2.3854322 -8.4131222 -1.4367121 28
2.6300533 -9.2758703 -0.44962329 5
3.2021673 -11.293645 -0.27254117 8
5.6739082 -20.011168 0 7
9.5072355 -33.530838 0.80917484 29
19.311218 -68.108261 3.3013678 55
1.449392 -5.111825 -1.657971 21
1.5680568 -5.5303411 -1.6483115 14
1.6862661 -5.9472504 -1.6182767 22
1.6828563 -5.9352245 -1.4617459 9
2.1212432 -7.4813609 -1.6528981 19
2.0946801 -7.3876758 -1.4467787 35
2.3374083 -8.3323421 -1.421797 41
2.2435193 -7.9976487 -1.167384 4
2.6553183 -9.465621 -1.1496598 10
2.6849813 -9.5713634 -0.92743313 7
3.4051619 -12.138647 -0.88158232 38
3.1766615 -11.324094 -0.5484733 7
2.9491971 -10.513234 -0.25350833 6
4.946003 -17.631405 0 16
9.4124794 -33.553402 0.80908197 29
1.4041708 -5.0055575 -1.6222259 40
1.5614341 -5.5661669 -1.6576831 16
1.6591996 -5.9146791 -1.6081467 22
1.6594417 -5.9155421 -1.4557513 6
2.0998142 -7.4853725 -1.6524823 21
2.221087 -7.9176831 -1.5493528 48
2.2841959 -8.2365456 -1.4042881 28
2.6022718 -9.3834896 -1.1387416 10
2.6104238 -9.4128847 -0.6830554 13
3.4122488 -12.304173 -0.29644829 9
4.9209275 -17.744293 0 5
9.3235722 -33.619717 0.81001043 29
1.4250281 -5.1384859 -1.6639285 18
1.5469675 -5.5781851 -1.6598883 18
1.6313025 -5.882287 -1.5980166 19
1.8733175 -6.7549648 -1.6609491 13
2.0242705 -7.2992845 -1.6100683 30
2.2448568 -8.0946932 -1.5826802 30
2.2919903 -8.3551826 -1.4234183 17
2.2885861 -8.3427725 -1.2158163 6
2.8535287 -10.402205 -1.2613966 28
2.5723896 -9.3773451 -0.90718275 9
3.2143261 -11.71745 -0.84963381 42
3.2894988 -11.991483 -0.57987058 10
4.2152047 -15.366036 -0.36993366 13
4.2565517 -15.516761 0 16
9.5777016 -34.914391 0.84055579 32
18.631332 -67.918343 3.2843184 54
1.3743081 -5.0098796 -1.6210345 50
1.5298587 -5.576921 -1.6582345 20
24.631828 -89.79245 8.686698 63
1.6225475 -5.9148073 -1.6056142 22
1.8508432 -6.7470326 -1.6577213 13
2.0628781 -7.5199809 -1.6574723 19
2.2274432 -8.1198845 -1.5863833 42
2.2812142 -8.419487 -1.4331454 72
2.506834 -9.252203 -1.3471957 16
2.801095 -10.33826 -1.2525692 28
2.880897 -10.632792 -1.0277565 10
3.1863697 -11.760227 -0.8520056 12
3.0924599 -11.413626 -0.55145466 9
4.8396058 -17.861979 0 23
9.5176458 -35.127651 0.84496588 33
1.3755386 -5.0768266 -1.6412899 27
1.527917 -5.6392241 -1.6753238 15
1.6257151 -6.0001764 -1.6273937 24
1.8403258 -6.7922597 -1.6674048 13
2.1916437 -8.0889015 -1.5789772 64
2.3470709 -8.7471695 -1.4879422 73
2.3831053 -8.881464 -1.2923615 21
2.8010514 -10.439084 -1.263952 47
3.0138853 -11.232283 -0.81322098 5
3.0081275 -11.210825 -0.54129946 9
3.0043671 -11.196811 -0.2691524 14
2.9279482 -10.912008 0 9
9.4442225 -35.197151 0.84608001 33
18.093292 -67.430893 3.2558093 54
1.3403695 -4.9953489 -1.6138854 46
1.5201123 -5.6652226 -1.6819392 13
1.6366216 -6.0994349 -1.6532254 18
1.7742977 -6.6125326 -1.6222152 28
2.1896999 -8.1606712 -1.5919379 38
2.3519289 -8.8765945 -1.5086937 49
2.4211347 -9.1377897 -1.3285465 6
2.7687507 -10.449753 -1.2641844 47
2.8291183 -10.67759 -1.0305432 12
2.4514849 -9.2523365 -0.44636244 7
2.9978538 -11.314428 -0.271752 12
4.5866103 -17.310677 0 21
1.3740572 -5.1859341 -1.6740562 16
1.5023067 -5.6699705 -1.6819392 13
1.6219112 -6.1213789 -1.657784 18
1.7081567 -6.4468846 -1.5802532 24
1.8453591 -6.9647102 -1.5314776 100
2.2113695 -8.3460979 -1.6267464 22
2.4131544 -9.2114964 -1.5644631 49
2.8110421 -10.730313 -1.297171 31
2.9375625 -11.213267 -1.081448 60
3.1197767 -11.908815 -0.28581774 18
4.5357165 -17.313744 0 21
8.807023 -33.618179 0.80685371 29
1.3532797 -5.165741 -1.6663115 18
17.934855 -68.460953 4.9488029 48
1.4781845 -5.6425276 -1.6725676 16
1.5793138 -6.0285587 -1.6314459 33
1.7118467 -6.5344634 -1.6005425 30
1.8868814 -7.2026057 -1.582624 51
2.198015 -8.3902655 -1.6341524 21
2.3092432 -8.9163389 -1.5132331 67
2.4564629 -9.4847755 -1.3769788 12
2.8897626 -11.157812 -1.0753171 10
3.044306 -11.754527 -0.84907579 10
3.0243838 -11.677605 -0.56254148 25
2.9862494 -11.530362 -0.27653342 10
4.300817 -16.606106 0 9
8.6970692 -33.580704 0.80536824 28
17.260727 -66.646286 3.2105303 53
1.3584749 -5.2452774 -1.6907371 13
1.4527818 -5.6094108 -1.6615421 15
1.5833319 -6.1134849 -1.6532254 18
1.6487036 -6.3658943 -1.5581197 31
1.8505752 -7.1453514 -1.5689018 100
2.0252688 -7.8198695 -1.5219502 22
2.3610382 -9.2290649 -1.5651115 67
2.6531255 -10.370807 -1.5044613 52
2.7875469 -10.896246 -1.0493073 42
2.7864041 -10.891779 -0.78615546 22
2.8862352 -11.282009 -0.54306966 4
2.8211975 -11.027783 -0.26427814 6
4.4289818 -17.312454 0 21
9.0369501 -35.324547 0.84654415 33
17.140642 -67.001076 3.2251573 53
1.3419591 -5.2455859 -1.6895458 15
1.4299374 -5.5894837 -1.6543756 17
1.5373727 -6.009438 -1.6238482 24
1.6751472 -6.5479851 -1.6014647 18
1.8046381 -7.0541525 -1.5476948 24
2.1798556 -8.5208406 -1.6571114 17
2.2972476 -9.0986662 -1.5417662 73
2.6733785 -10.588401 -1.5348011 82
2.7104027 -10.735043 -1.0329584 10
2.8469234 -11.275757 -0.81322098 16
3.2273595 -12.782543 -0.61480814 8
3.5750709 -14.159717 -0.33906332 11
3.1956155 -12.656816 0 8
8.893136 -35.222878 0.84343392 33
16.893875 -66.911255 3.2182631 53
1.3231359 -5.24052 -1.6865668 15
1.4213122 -5.6293654 -1.6648498 16
1.5511668 -6.1436777 -1.6587969 18
1.6736242 -6.6286922 -1.6199095 15
1.8418515 -7.2949872 -1.5992569 27
2.1622174 -8.5638542 -1.6641473 17
2.2106755 -8.8599463 -1.5002635 33
2.749336 -11.018791 -1.3280672 26
2.730552 -10.943508 -1.0522799 17
2.7043345 -10.838433 -0.781133 12
3.906013 -15.654522 -0.75241554 7
3.4885631 -13.981466 -0.33456042 8
4.4811087 -17.959393 0 5
16.558475 -66.363075 3.1896605 52
1.3024881 -5.2201128 -1.6788222 17
1.4097755 -5.6500998 -1.6698111 16
17.367256 -69.6045 6.6928644 55
1.5358783 -6.1554942 -1.6608229 13
1.6720681 -6.7013159 -1.6365099 16
1.8470477 -7.4025993 -1.6217113 27
1.9346472 -7.7536807 -1.5056568 20
2.2912757 -9.2933893 -1.5725691 24
2.2624159 -9.1763344 -1.3282682 1
2.7670572 -11.223154 -1.3517619 47
2.6947372 -10.929824 -1.0502363 17
2.7222934 -11.041593 -0.79522383 7
4.7217102 -19.151205 -0.45794904 10
4.2983212 -17.433945 0 16
8.3076248 -33.695637 0.80573958 28
16.405607 -66.540962 3.195996 53
1.2956748 -5.2552428 -1.6889498 15
16.829027 -68.258347 4.916018 47
1.4027357 -5.6894808 -1.6802853 15
17.158033 -69.592796 6.6871057 55
1.4834827 -6.0169897 -1.6223288 27
1.641235 -6.6568313 -1.6245208 21
1.6999271 -6.8948855 -1.509439 100
2.2818952 -9.3749323 -1.5852146 21
2.7201221 -11.175343 -1.3450252 39
2.7211654 -11.179629 -1.0734593 10
2.6616821 -10.935247 -0.78699255 12
2.9487758 -12.114742 -0.5814544 10
2.8868749 -11.860429 -0.28340384 9
4.7261958 -19.417089 0 7
8.8218727 -36.243759 0.86604118 35
1.2764647 -5.2442241 -1.684184 16
16.345682 -67.154556 4.8330078 45
1.3785741 -5.6637301 -1.6714649 15
16.973139 -69.732399 6.6956511 55
1.4674543 -6.0288854 -1.6243548 27
1.5860374 -6.5160713 -1.5890145 18
1.7608911 -7.2344398 -1.582624 100
2.0675187 -8.4941883 -1.6471132 12
2.2474022 -9.3467283 -1.5793782 33
2.6847246 -11.16551 -1.3429344 21
2.6550198 -11.04197 -1.0595255 10
2.6684496 -11.097824 -0.79815358 11
2.8383179 -11.80429 -0.28187191 9
3.1121433 -12.943103 0 3
8.0624685 -33.531025 0.80067968 28
16.037043 -66.69651 3.1989775 53
1.2582446 -5.2329178 -1.679418 16
16.10725 -66.988495 4.8178005 45
1.3654495 -5.6787729 -1.6747726 16
16.714567 -69.514275 6.6701984 55
1.4782048 -6.1477113 -1.6552514 18
1.6092377 -6.6926641 -1.6309764 22
1.7356511 -7.2184052 -1.5780498 90
1.9624618 -8.1616888 -1.5815693 28
2.2415326 -9.4455252 -1.5949417 25
2.3752351 -10.00893 -1.4457303 6
2.6286502 -11.076789 -1.3313195 28
2.6153483 -11.020737 -1.0567387 22
2.6239927 -11.057162 -0.79466575 7
2.839741 -11.966298 -0.5735352 7
2.7968173 -11.785422 -0.28122202 9
4.1238542 -17.377384 0 10
8.5354176 -35.967136 0.85824239 34
15.977464 -67.32695 3.2269275 53
1.2365407 -5.2106214 -1.6710774 16
1.3517015 -5.6958938 -1.6786315 15
1.4563836 -6.1370101 -1.6511995 20
17.685022 -74.522377 8.9568453 60
1.6086951 -6.778831 -1.6508045 20
1.7101605 -7.2063932 -1.5743074 90
2.1975846 -9.3768101 -1.5822964 33
2.3124778 -9.8670454 -1.4242976 13
2.5958951 -11.076349 -1.3303902 10
2.6449966 -11.28586 -1.081448 10
2.5849111 -11.029483 -0.79215455 11
4.6247721 -19.733307 0 14
8.3268185 -35.529461 0.84724051 33
15.779819 -67.330452 3.2249711 53
1.227213 -5.2363601 -1.6782265 16
1.3366679 -5.7033896 -1.6797341 15
1.4458627 -6.1693091 -1.6587969 15
17.630512 -75.227119 9.0355959 61
1.5835421 -6.7567701 -1.6443489 26
1.7511853 -7.4720821 -1.6312753 21
1.8329026 -7.8207588 -1.5134333 20
2.1746449 -9.4044399 -1.585863 30
2.2675755 -9.8063269 -1.4145555 6
2.5320916 -10.95025 -1.0485642 5
2.5665586 -11.099305 -0.79661888 5
2.8000307 -12.108974 -0.57959104 7
2.7297943 -11.805232 -0.28131485 6
4.57161 -19.770323 0 14
8.2087526 -35.499462 0.84594071 33
15.570529 -67.336098 3.2230144 53
1.2116715 -5.2399778 -1.6782265 13
1.3184407 -5.7017107 -1.6780803 16
1.4297315 -6.1829972 -1.6613295 15
1.573572 -6.8050485 -1.6549546 20
1.6562866 -7.162755 -1.5626644 100
1.7986207 -7.7782907 -1.5041758 22
2.1677992 -9.5032082 -1.6014266 25
2.5133333 -11.017962 -1.3215626 10
2.4885182 -10.909179 -1.0439197 5
2.7816517 -12.194218 -0.87460673 8
2.7769749 -12.173717 -0.58229291 10
2.7143207 -11.899052 -0.28335741 9
4.2718482 -18.726948 0 12
8.0829296 -35.433987 0.84380525 33
15.392882 -67.479393 3.2276728 53
1.1935709 -5.2323813 -1.6746519 16
1.3032275 -5.7130952 -1.6802853 13
15.734486 -68.976913 6.6005297 54
1.4087977 -6.1758943 -1.6582905 15
1.5568362 -6.8248663 -1.6586435 16
1.7007236 -7.4556403 -1.6254537 21
1.627791 -7.1359186 -1.3790129 19
2.1473229 -9.5361795 -1.6059659 25
2.2680526 -10.072337 -1.4510189 6
2.5702682 -11.414465 -1.3682554 10
2.7434082 -12.183372 -0.58238608 7
7.59376 -33.723606 0 22
7.9773622 -35.427166 0.84310895 32
15.159622 -67.323311 3.2181697 53
1.1802131 -5.241282 -1.6764392 17
1.2860018 -5.7110858 -1.6786315 16
15.530871 -68.972015 6.5958853 54
1.389421 -6.1703663 -1.6557579 13
17.201597 -76.391647 9.1570892 62
1.5296491 -6.7931142 -1.6498822 19
1.6794674 -7.4584517 -1.6250379 16
1.8064653 -8.0224447 -1.5493528 60
2.137445 -9.6334333 -1.6212052 24
2.2076545 -9.9498672 -1.4323697 6
2.532244 -11.412786 -1.3670938 21
2.8362975 -12.783151 -0.91562349 11
2.6869433 -12.110014 -0.57847303 10
2.6943359 -12.143332 -0.28878874 9
3.96613 -17.87529 0 5
7.5888371 -34.202778 0.8133992 29
1.1558836 -5.2095504 -1.6651199 18
15.143054 -68.249519 4.8885336 46
1.2463986 -5.6174998 -1.6499653 22
1.373801 -6.1917009 -1.6603165 13
16.585447 -74.750366 8.9540577 60
1.5074571 -6.7940869 -1.64896 16
1.6560274 -7.4636912 -1.6250379 16
1.7778469 -8.0127296 -1.5463904 68
2.0455298 -9.3424721 -1.5712721 100
2.1845198 -9.9772749 -1.4354315 11
2.3927972 -10.928534 -1.0437338 10
2.3802652 -10.871297 -0.77820319 5
2.6202126 -11.967198 -0.5712992 2
2.6629801 -12.162529 -0.28906727 16
7.3280559 -33.469154 0 21
7.4565148 -34.055862 0.80940688 29
1.1478645 -5.2425981 -1.6746519 13
1.2257719 -5.5984221 -1.64335 18
15.071897 -68.837311 6.5743341 54
1.3569186 -6.1974034 -1.6608229 15
1.4963866 -6.8343911 -1.6577213 16
1.6435463 -7.5065074 -1.6333544 16
1.8134748 -8.2826157 -1.5974923 34
2.0702665 -9.5915689 -1.6121265 28
2.1691151 -10.049535 -1.4448953 35
2.3607821 -10.937532 -1.0439197 10
2.3618908 -10.942668 -0.78280711 3
2.6276882 -12.17411 -0.5808022 2
2.7525945 -12.752802 -0.30290088 7
7.2869525 -33.760536 0 22
1.1335131 -5.2515798 -1.6764392 16
14.84569 -68.780258 4.9203424 47
1.2286258 -5.6922379 -1.6698111 13
15.044472 -69.701218 6.6525497 55
1.340566 -6.2108579 -1.6633555 15
16.09429 -74.565033 8.9206066 60
1.4785661 -6.850214 -1.6604879 16
1.6245693 -7.5266485 -1.636681 22
1.722545 -7.9805713 -1.5382438 56
2.0792308 -9.7652464 -1.6403354 26
2.2227089 -10.439102 -1.5000079 42
2.3803568 -11.179504 -1.3366623 5
2.360409 -11.085818 -0.79257303 1
2.5691347 -12.066113 -0.57530534 7
2.7136407 -12.744795 -0.30252951 2
6.7244954 -31.582041 0 19
8.009758 -37.618362 0.89296573 38
14.461629 -67.920006 3.2383871 53
1.1216269 -5.2677956 -1.6806093 13
14.618664 -68.657532 4.9086237 47
1.2135264 -5.6994076 -1.6709137 15
1.324023 -6.2183628 -1.6643685 15
1.459026 -6.8524127 -1.6600268 16
1.6214708 -7.615346 -1.6549772 18
1.7460948 -8.2006512 -1.5797178 28
2.0243711 -9.639678 -1.6182871 22
2.5628159 -12.203652 -1.1633787 19
2.5456941 -12.122121 -0.57763457 7
2.7133791 -12.920606 -0.30652177 2
4.3360825 -20.647617 0 16
1.1084813 -5.2783813 -1.6829923 13
14.358397 -68.372009 4.885325 46
1.1976055 -5.702774 -1.6709137 15
1.3086406 -6.231503 -1.666901 15
1.4346846 -6.8317013 -1.6540323 16
1.6005999 -7.6217585 -1.655393 18
1.7619647 -8.3901472 -1.6152669 22
1.6424872 -7.9452343 -1.332955 6
2.3154902 -11.200764 -1.6074494 22
2.3288541 -11.265409 -1.3452575 5
2.4603658 -11.901573 -1.133839 10
2.4991059 -12.088973 -0.57567805 7
2.4456928 -11.830595 -0.28047928 6
6.9843707 -33.785625 0 22
14.275117 -69.053291 3.2883244 54
1.0918937 -5.2818375 -1.6829923 15
14.174634 -68.567223 4.8960676 47
1.1800734 -5.7083912 -1.6714649 16
14.192155 -68.651978 6.5403361 54
1.2870994 -6.22611 -1.6643685 13
1.4171554 -6.8552327 -1.6586435 16
1.5770441 -7.6286654 -1.6558088 16
1.7264467 -8.3513727 -1.60675 34
1.6118187 -7.9011645 -1.3248489 4
2.2311318 -10.937049 -1.5687593 97
2.4622698 -12.070092 -0.28600344 6
4.4481516 -21.80492 0 9
7.2797022 -35.685234 0.84556931 33
14.172949 -69.476059 3.3066783 55
1.0776801 -5.2828074 -1.6823967 15
14.065259 -68.948158 4.9206214 47
1.1651244 -5.7114611 -1.6714649 16
14.106306 -69.149368 6.5841813 54
1.2715679 -6.2332492 -1.6653814 15
15.325177 -75.124298 8.9661369 60
1.3984252 -6.8551059 -1.6577213 20
1.7269688 -8.4656324 -1.6278574 18
2.2907758 -11.391761 -1.6330572 24
2.3841794 -11.856246 -1.414251 11
2.6609302 -13.232495 -1.2592432 9
2.4154255 -12.01163 -0.856749 6
2.9086571 -14.464413 -0.68803728 9
3.1510904 -15.670006 -0.37109423 10
4.3884273 -21.823137 0 18
7.1918497 -35.764229 0.84696198 33
13.962734 -69.435051 3.3028584 55
1.0633003 -5.2876682 -1.6829923 16
13.853003 -68.889366 4.9136457 47
1.1484128 -5.7109232 -1.6703625 13
14.064299 -69.940117 6.6557074 55
1.2522497 -6.2272921 -1.6628491 13
1.38273 -6.8761549 -1.6618713 20
1.4655538 -7.2880278 -1.580129 69
1.8651708 -9.4284325 -1.579054 79
2.254977 -11.398902 -1.6330572 26
2.2547865 -11.397939 -1.358731 21
2.3329885 -11.793249 -1.1215773 2
2.7635622 -13.969798 -0.66409338 3
2.4724755 -12.498357 -0.29579839 7
6.7227387 -33.983425 0 22
7.079072 -35.784687 0.8469156 33
13.780204 -69.65889 3.31143 55
1.046313 -5.2891097 -1.6823967 16
1.1304661 -5.7145028 -1.6703625 16
1.2341822 -6.2387872 -1.664875 13
1.3633876 -6.8919201 -1.664638 16
1.4365767 -7.2618909 -1.5734758 55
1.6419948 -8.3002787 -1.5941597 12
1.8146685 -9.3096313 -1.5583025 73
2.1867592 -11.218535 -1.6063361 29
2.420439 -12.417361 -1.180285 11
2.8537338 -14.640254 -0.69558382 19
2.7061083 -13.882905 -0.32838637 8
6.6324024 -34.02562 0 22
13.611997 -69.832405 3.3178585 55
1.0308082 -5.2882628 -1.6812052 15
1.1159748 -5.7251854 -1.6725676 15
1.216755 -6.2422094 -1.664875 15
1.343019 -6.8899698 -1.6632546 16
15.607043 -80.067413 11.464524 63
1.5027514 -7.7094307 -1.6695311 21
1.7856872 -9.2991571 -1.5557086 31
2.1292789 -11.088448 -1.5868518 29
2.3752282 -12.369255 -0.88074523 4
2.6787157 -13.949698 -0.6624164 3
2.9719956 -15.476986 -0.365895 13
4.496911 -23.418146 0 10
13.387928 -69.71907 3.3106842 55
1.0149567 -5.2854962 -1.679418 15
1.099983 -5.7282791 -1.6725676 13
1.1996839 -6.2474828 -1.6653814 15
1.3201036 -6.8745813 -1.6586435 16
1.4793724 -7.7039905 -1.667452 19
1.5800449 -8.2282524 -1.5786068 68
1.6429781 -8.7035408 -1.4551939 50
1.9397655 -10.275747 -1.469668 4
2.3833241 -12.625463 -1.5025256 18
2.5199528 -13.349242 -1.2674177 12
2.8690889 -15.198761 -0.72129786 6
2.8387945 -15.03828 -0.35531086 6
4.317214 -22.870083 0 10
13.161045 -69.719551 3.3087277 55
0.99728411 -5.28303 -1.6776307 15
13.333479 -70.633003 5.0263724 50
1.0826946 -5.7354851 -1.6736702 13
1.1804097 -6.2531223 -1.6658881 15
1.2977778 -6.8748703 -1.6577213 16
1.4573392 -7.7201338 -1.6699469 16
1.6004881 -8.4784527 -1.6256355 22
1.7396795 -9.3500319 -1.5625176 61
2.3262808 -12.502764 -1.4871937 60
2.5104949 -13.492835 -1.2804226 9
2.9180932 -15.683501 -0.74393743 14
2.9830196 -16.032454 -0.37861452 7
4.2551317 -22.869511 0 10
7.030725 -37.787136 0.8923623 38
0.98310077 -5.2837458 -1.6770349 15
1.0666206 -5.7326293 -1.6720164 15
1.1622655 -6.2466803 -1.6633555 15
14.284352 -76.772278 9.1320009 62
1.2776393 -6.8667645 -1.6549546 16
1.437839 -7.7277694 -1.6707785 13
1.7472068 -9.557354 -1.5962387 24
2.2512672 -12.314603 -1.4639635 86
2.2287962 -12.191685 -0.86665446 2
6.2966537 -34.443176 0 22
0.96477968 -5.2774181 -1.6740562 15
1.047914 -5.7321696 -1.6709137 15
1.1419392 -6.2464943 -1.6623424 15
14.095962 -77.105988 9.1663818 62
1.25711 -6.8764877 -1.656338 16
18.073221 -98.861893 14.124401 63
1.4103879 -7.7149291 -1.6670362 14
1.5618792 -8.5435972 -1.6363744 19
1.7282 -9.604928 -1.603372 21
1.8230575 -10.132124 -1.4468437 3
2.4892738 -13.834796 -1.3114485 9
2.4127328 -13.4094 -0.95273393 4
2.7260172 -15.150561 -0.35739985 12
3.8958659 -21.652306 0 8
0.93009132 -5.1692286 -1.638907 36
1.0312221 -5.7312889 -1.6698111 15
13.506046 -75.063423 7.1155229 60
1.1265472 -6.2610841 -1.6653814 15
13.479921 -74.918228 8.9017906 59
1.2416936 -6.9010401 -1.6614102 16
17.758852 -98.699509 14.094061 63
1.374635 -7.6398969 -1.6499873 24
1.5317504 -8.5131073 -1.6297088 17
1.5685639 -8.8595943 -1.4782149 3
2.0647085 -11.661929 -1.384981 10
2.3642116 -13.353588 -0.63241667 8
2.6910174 -15.19946 -0.35837469 12
6.1139522 -34.532951 0 22
6.638308 -37.494625 0.88405281 37
0.9233076 -5.215045 -1.6526092 21
13.226279 -74.704941 5.305119 56
1.0148778 -5.7322536 -1.6692599 15
1.1107448 -6.2737317 -1.667914 15
1.2203813 -6.8929825 -1.6586435 16
1.3543177 -7.6494846 -1.6512347 16
1.4343027 -8.1012583 -1.5500935 100
1.8042767 -10.380819 -1.4808019 8
2.3187685 -13.340923 -0.94687438 7
2.5008314 -14.388413 -0.68104976 3
2.6535265 -15.266937 -0.35976735 9
5.9951615 -34.49287 0 22
0.88305354 -5.080606 -1.6091195 33
0.9965356 -5.7335196 -1.6687087 15
1.0923555 -6.2848148 -1.66994 13
13.135801 -75.576202 8.9705515 60
1.1960548 -6.881444 -1.6549546 16
1.33899 -7.703814 -1.6620462 13
1.4923124 -8.585947 -1.6419288 19
1.5970989 -9.3434067 -1.5573299 100
2.3187926 -13.565485 -1.2839525 6
2.3241975 -13.597106 -0.96459258 7
2.5713882 -15.04323 -0.71170169 23
2.6257067 -15.361006 -0.36180988 19
5.9652028 -34.89785 0 23
11.808606 -69.083138 1.6271697 63
11.922167 -69.747498 3.2997839 55
0.88912863 -5.2016129 -1.6466517 21
0.97954929 -5.7305951 -1.6670549 16
1.0734972 -6.2802129 -1.667914 15
12.906297 -75.50489 8.9577742 60
1.1784734 -6.8943486 -1.6572601 16
1.3145056 -7.6901684 -1.6583037 16
1.4640257 -8.5648966 -1.6371149 25
17.235168 -100.82981 19.272852 44
1.6105381 -9.5933399 -1.5981842 40
